# .PCD v0.7 - Point Cloud Data file format
VERSION 0.7
FIELDS x y z rgba
SIZE 4 4 4 4
TYPE F F F U
COUNT 1 1 1 1
WIDTH 1109
HEIGHT 1
VIEWPOINT 0 0 0 1 0 0 0
POINTS 1109
DATA ascii
-1.0850559 -0.21837571 4.6259999 4288716436
-1.0761255 -0.21837571 4.6259999 4288782229
-1.0671949 -0.21837571 4.6259999 4288716436
-1.0582645 -0.21837571 4.6259999 4288913817
-1.0493339 -0.21837571 4.6259999 4289176989
-1.0404035 -0.21837571 4.6259999 4289242782
-1.0314729 -0.21837571 4.6259999 4289374368
-1.0225425 -0.21837571 4.6259999 4289440161
-1.0136119 -0.21837571 4.6259999 4289505954
-0.94886583 -0.20624374 4.369 4289703331
-0.94043148 -0.20624374 4.369 4289703331
-0.93199712 -0.20624374 4.369 4289769124
-0.92356271 -0.20624374 4.369 4289637538
-0.91512835 -0.20624374 4.369 4289374366
-0.90669399 -0.20624374 4.369 4288584850
-0.89825964 -0.20624374 4.369 4287926918
-0.88982528 -0.20624374 4.369 4287729539
-0.88139093 -0.20624374 4.369 4286939510
-0.87295657 -0.20624374 4.369 4286478961
-0.86452222 -0.20624374 4.369 4286413168
-0.8560878 -0.20624374 4.369 4287071098
-0.84765345 -0.20624374 4.369 4287992198
-0.79004532 -0.19415896 4.1129999 4288255883
-0.78191507 -0.19411175 4.112 4288255370
-0.7739768 -0.19411175 4.112 4288518542
-0.7660386 -0.19411175 4.112 4288650128
-0.75810039 -0.19411175 4.112 4288650128
-0.75016218 -0.19411175 4.112 4288781968
-0.74222392 -0.19411175 4.112 4288979347
-0.73428571 -0.19411175 4.112 4289110933
-0.72634751 -0.19411175 4.112 4288387210
-0.71840924 -0.19411175 4.112 4288123268
-0.71047103 -0.19411175 4.112 4287662715
-0.65862453 -0.18197978 3.855 4287136371
-0.65118241 -0.18197978 3.855 4287335035
-0.64374036 -0.18197978 3.855 4288190344
-0.63629824 -0.18197978 3.855 4288518024
-0.62885618 -0.18197978 3.855 4288583817
-0.62141412 -0.18197978 3.855 4289045392
-0.61397201 -0.18197978 3.855 4289242769
-0.60652995 -0.18197978 3.855 4288913806
-0.59908783 -0.18197978 3.855 4289045651
-0.59164578 -0.18197978 3.855 4289177491
-0.58420366 -0.18197978 3.855 4288387975
-0.5767616 -0.18197978 3.855 4287992963
-0.56931949 -0.18197978 3.855 4287860864
-0.56187743 -0.18197978 3.855 4287597176
-0.55443531 -0.18197978 3.855 4287201653
-0.54699326 -0.18197978 3.855 4287267446
-0.53955114 -0.18197978 3.855 4287925887
-0.53210908 -0.18197978 3.855 4288846476
-0.52466697 -0.18197978 3.855 4288978575
-0.51722491 -0.18197978 3.855 4288584587
-0.50978285 -0.18197978 3.855 4288321415
-0.50234073 -0.18197978 3.855 4287992452
-0.49489865 -0.18197978 3.855 4287795073
-0.48745656 -0.18197978 3.855 4287597692
-0.48001447 -0.18197978 3.855 4287400313
-0.47257239 -0.18197978 3.855 4287466106
-0.4651303 -0.18197978 3.855 4287400313
-0.45768821 -0.18197978 3.855 4287531899
-0.45024616 -0.18197978 3.855 4288058243
-0.44280407 -0.18197978 3.855 4288519307
-0.43536198 -0.18197978 3.855 4288387208
-0.42791989 -0.18197978 3.855 4287860864
-0.42047781 -0.18197978 3.855 4287597694
-0.41303572 -0.18197978 3.855 4287465336
-0.40559363 -0.18197978 3.855 4287333750
-0.39815155 -0.18197978 3.855 4287202164
-0.39070946 -0.18197978 3.855 4287136371
-0.35781562 -0.16989499 3.599 4286873969
-0.35077026 -0.16984779 3.598 4286545006
-0.34382433 -0.16984779 3.598 4286544752
-0.33687839 -0.16984779 3.598 4286544752
-0.32993245 -0.16984779 3.598 4286478959
-0.29232433 -0.15710212 3.3280001 4286479472
-0.28701642 -0.1577158 3.3410001 4286479472
-0.2805666 -0.1577158 3.3410001 4286480242
-0.27411681 -0.1577158 3.3410001 4286546035
-0.267667 -0.1577158 3.3410001 4286545265
-0.26121718 -0.1577158 3.3410001 4286611058
-0.25476739 -0.1577158 3.3410001 4286545265
-0.24831757 -0.1577158 3.3410001 4286348656
-0.24186777 -0.1577158 3.3410001 4286348656
-0.23541796 -0.1577158 3.3410001 4286282863
-0.22896816 -0.1577158 3.3410001 4286085486
-0.22251834 -0.1577158 3.3410001 4286085486
-0.21606854 -0.1577158 3.3410001 4286085486
-0.20961873 -0.1577158 3.3410001 4286084716
-0.20316893 -0.1577158 3.3410001 4286018923
-0.19671911 -0.1577158 3.3410001 4285953130
-0.19026931 -0.1577158 3.3410001 4285953130
-0.1838195 -0.1577158 3.3410001 4285953130
-0.1773697 -0.1577158 3.3410001 4285953130
-0.1709199 -0.1577158 3.3410001 4285755751
-0.16447008 -0.1577158 3.3410001 4285755751
-0.15802027 -0.1577158 3.3410001 4285887339
-0.15157047 -0.1577158 3.3410001 4285755751
-0.14512067 -0.1577158 3.3410001 4282467145
-0.13867085 -0.1577158 3.3410001 4281809215
-0.13222104 -0.1577158 3.3410001 4280890943
-0.12577124 -0.1577158 3.3410001 4280562748
-0.11932143 -0.1577158 3.3410001 4280561978
-0.11287162 -0.1577158 3.3410001 4280035634
-0.10642182 -0.1577158 3.3410001 4280167220
-0.09997201 -0.1577158 3.3410001 4280035374
-0.093522206 -0.1577158 3.3410001 4279772200
-0.087072395 -0.1577158 3.3410001 4279903273
-0.080622591 -0.1577158 3.3410001 4279902501
-0.07417278 -0.1577158 3.3410001 4279639329
-0.067722976 -0.1577158 3.3410001 4279638046
-0.061273169 -0.1577158 3.3410001 4279046679
-0.054823361 -0.1577158 3.3410001 4278981140
-0.048373554 -0.1577158 3.3410001 4279176977
-0.041923746 -0.1577158 3.3410001 4278914575
-0.035473939 -0.1577158 3.3410001 4278914575
-0.029024132 -0.1577158 3.3410001 4278848780
-0.022574324 -0.1577158 3.3410001 4278782987
-0.016124519 -0.1577158 3.3410001 4278782987
-0.0096747102 -0.1577158 3.3410001 4278848780
-0.0032249035 -0.1577158 3.3410001 4278782987
0.0032249035 -0.1577158 3.3410001 4278848010
0.0096747102 -0.1577158 3.3410001 4278651401
6.2741317e-05 -0.00061368017 0.013 4278717194
0.029024132 -0.1577158 3.3410001 4278585610
0.035473939 -0.1577158 3.3410001 4278651403
0.041923746 -0.1577158 3.3410001 4278586380
0.048373554 -0.1577158 3.3410001 4278521098
0.054823361 -0.1577158 3.3410001 4278389512
0.061273169 -0.1577158 3.3410001 4278455305
-2.8800869 -0.20946242 4.6259999 4282335285
-2.8711562 -0.20946242 4.6259999 4282467130
-2.8622258 -0.20946242 4.6259999 4282532666
-2.8532953 -0.20946242 4.6259999 4282860346
-2.8443649 -0.20946242 4.6259999 4282860346
-2.8354344 -0.20946242 4.6259999 4282860346
-2.8265038 -0.20946242 4.6259999 4283189311
-2.8175733 -0.20946242 4.6259999 4282991932
-2.8086429 -0.20946242 4.6259999 4282662969
-2.7997124 -0.20946242 4.6259999 4282794555
-2.7907817 -0.20946242 4.6259999 4282795068
-2.7818513 -0.20946242 4.6259999 4282860861
-2.7729208 -0.20946242 4.6259999 4283123520
-2.7639904 -0.20946242 4.6259999 4282860348
-2.7550597 -0.20946242 4.6259999 4282794816
-2.7461293 -0.20946242 4.6259999 4282729023
-2.7371988 -0.20946242 4.6259999 4282729793
-2.7282684 -0.20946242 4.6259999 4282532414
-2.7193377 -0.20946242 4.6259999 4282532412
-2.7104073 -0.20946242 4.6259999 4281018403
-2.7014768 -0.20946242 4.6259999 4280229657
-2.6925464 -0.20946242 4.6259999 4279573273
-2.6836157 -0.20946242 4.6259999 4279507480
-2.6746852 -0.20946242 4.6259999 4279572503
-2.6657548 -0.20946242 4.6259999 4279505940
-2.6568244 -0.20946242 4.6259999 4279112722
-2.6478937 -0.20946242 4.6259999 4278981138
-2.6389632 -0.20946242 4.6259999 4279111952
-2.6300328 -0.20946242 4.6259999 4279111952
-2.6211023 -0.20946242 4.6259999 4278717964
-2.6121719 -0.20946242 4.6259999 4278783757
-2.6032412 -0.20946242 4.6259999 4278784010
-2.5943108 -0.20946242 4.6259999 4278784010
-2.5853803 -0.20946242 4.6259999 4278849033
-2.5764499 -0.20946242 4.6259999 4278782987
-2.5675192 -0.20946242 4.6259999 4278652424
-2.5585887 -0.20946242 4.6259999 4278587144
-2.6907549 -0.22105394 4.882 4278586631
-2.6818793 -0.22109923 4.8829999 4278651654
-2.6724527 -0.22109923 4.8829999 4278717447
-2.6630261 -0.22109923 4.8829999 4278651654
-2.6535993 -0.22109923 4.8829999 4278717194
-2.6441727 -0.22109923 4.8829999 4278783240
-2.6347461 -0.22109923 4.8829999 4278717447
-2.6253195 -0.22109923 4.8829999 4278717447
-2.6158929 -0.22109923 4.8829999 4278914054
-2.6064661 -0.22109923 4.8829999 4281013517
-2.5970395 -0.22109923 4.8829999 4281734156
-2.5876129 -0.22109923 4.8829999 4279832071
-2.5781863 -0.22109923 4.8829999 4279832071
-2.5687597 -0.22109923 4.8829999 4279505418
-2.5593328 -0.22109923 4.8829999 4278979847
-2.5499063 -0.22109923 4.8829999 4278652422
-2.5404797 -0.22109923 4.8829999 4278652424
-2.5310531 -0.22109923 4.8829999 4278849033
-2.5216265 -0.22109923 4.8829999 4278849033
-2.5121996 -0.22109923 4.8829999 4278914826
-2.502773 -0.22109923 4.8829999 4278784010
-2.4933465 -0.22109923 4.8829999 4278915596
-2.4839199 -0.22109923 4.8829999 4278915343
-2.4554749 -0.22023891 4.8639998 4279047442
-2.4556398 -0.22109923 4.8829999 4282072115
-2.4462132 -0.22109923 4.8829999 4283848006
-2.5645394 -0.23269075 5.1389999 4283518526
-2.5551157 -0.23273602 5.1399999 4283255356
-2.545193 -0.23273602 5.1399999 4283387201
-2.5352702 -0.23273602 5.1399999 4284176717
-2.5253475 -0.23273602 5.1399999 4283189309
-2.5154247 -0.23273602 5.1399999 4282663480
-2.5055017 -0.23273602 5.1399999 4282597687
-2.495579 -0.23273602 5.1399999 4282335283
-2.4856563 -0.23273602 5.1399999 4282334513
-2.4757335 -0.23273602 5.1399999 4282334513
-2.4658108 -0.23273602 5.1399999 4282202927
-2.455888 -0.23273602 5.1399999 4281808169
-2.4459653 -0.23273602 5.1399999 4285493601
-2.4360423 -0.23273602 5.1399999 4284375375
-2.4261196 -0.23273602 5.1399999 4283452733
-2.4161968 -0.23273602 5.1399999 4282795318
-2.4062741 -0.23273602 5.1399999 4285295200
-2.3963513 -0.23273602 5.1399999 4285559140
-2.3864286 -0.23273602 5.1399999 4283716168
-2.3765056 -0.23273602 5.1399999 4283124031
-2.3665829 -0.23273602 5.1399999 4283781448
-2.3566601 -0.23273602 5.1399999 4284307792
-2.3467374 -0.23273602 5.1399999 4286413679
-2.3368146 -0.23273602 5.1399999 4286545265
-2.3268919 -0.23273602 5.1399999 4286215017
-2.3169692 -0.23273602 5.1399999 4286084453
-2.3070462 -0.23273602 5.1399999 4286613109
-2.2971234 -0.23273602 5.1399999 4284310354
-2.2872007 -0.23273602 5.1399999 4281810750
-2.2772779 -0.23273602 5.1399999 4281876545
-2.2673552 -0.23273602 5.1399999 4282139717
-2.2574325 -0.23273602 5.1399999 4282337096
-2.2475095 -0.23273602 5.1399999 4283125845
-0.0087065632 -0.00090558763 0.02 4290362036
-2.2177413 -0.23273602 5.1399999 4290163880
-2.2078185 -0.23273602 5.1399999 4290360746
-2.1978958 -0.23273602 5.1399999 4291412666
-2.187973 -0.23273602 5.1399999 4291347643
-2.17805 -0.23273602 5.1399999 4291347643
-2.1681273 -0.23273602 5.1399999 4291281850
-2.1582046 -0.23273602 5.1399999 4291084471
-2.1482818 -0.23273602 5.1399999 4291084471
-2.1383591 -0.23273602 5.1399999 4290952885
-2.1284363 -0.23273602 5.1399999 4290492082
-2.1185133 -0.23273602 5.1399999 4289176989
-2.1085906 -0.23273602 5.1399999 4288255887
-2.2036014 -0.24437283 5.3969998 4288255887
-2.1931825 -0.24437283 5.3969998 4288453266
-2.1827633 -0.24437283 5.3969998 4288913304
-2.1723444 -0.24437283 5.3969998 4288913304
-2.1619256 -0.24437283 5.3969998 4288913304
-2.1515067 -0.24437283 5.3969998 4288650132
-2.1410878 -0.24437283 5.3969998 4288452751
-2.1306689 -0.24437283 5.3969998 4288518544
-2.12025 -0.24437283 5.3969998 4288847509
-3.0917685 -0.37092873 8.1920004 4288386190
-3.0879691 -0.37237763 8.224 4288913302
-3.0720928 -0.37237763 8.224 4288321165
-0.011891892 -0.0014489404 0.032000002 4288057993
-2.833946 -0.37237763 8.224 4290624951
-2.8180695 -0.37237763 8.224 4290559158
-2.8021929 -0.37237763 8.224 4290624951
-2.7863166 -0.37237763 8.224 4290888123
-2.7704401 -0.37237763 8.224 4290756537
-2.7545638 -0.37237763 8.224 4290361009
-2.7386873 -0.37237763 8.224 4289768872
-2.7228107 -0.37237763 8.224 4289703079
-2.7069345 -0.37237763 8.224 4289834665
-2.7751534 -0.38401446 8.4809999 4290163630
-2.758781 -0.38401446 8.4809999 4290229423
-2.7424083 -0.38401446 8.4809999 4290426802
-2.7260356 -0.38401446 8.4809999 4290559158
-2.7096632 -0.38401446 8.4809999 4290493365
-2.6932905 -0.38401446 8.4809999 4290295986
-2.676918 -0.38401446 8.4809999 4290295986
-2.6605453 -0.38401446 8.4809999 4290427572
-2.6441727 -0.38401446 8.4809999 4290230193
-2.7074304 -0.39565125 8.7379999 4290230193
-2.6905618 -0.39565125 8.7379999 4290164400
-2.6736929 -0.39565125 8.7379999 4290164400
-2.6296835 -0.39411178 8.7040005 4290098607
-2.6230869 -0.39565125 8.7379999 4290164400
-2.6828716 -0.40728804 8.9949999 4290230193
-2.6655068 -0.40728804 8.9949999 4290230193
-2.6481419 -0.40728804 8.9949999 4290164400
-2.6307769 -0.40728804 8.9949999 4289967021
-2.6134121 -0.40728804 8.9949999 4287664268
-2.5960472 -0.40728804 8.9949999 4287927440
-2.5786824 -0.40728804 8.9949999 4290032814
-2.6342134 -0.4188796 9.2510004 4289967021
-2.616637 -0.41892484 9.2519999 4289835435
-2.5987761 -0.41892484 9.2519999 4289439907
-2.580915 -0.41892484 9.2519999 4289900458
-2.5630541 -0.41892484 9.2519999 4289703079
-2.545193 -0.41892484 9.2519999 4289506470
-2.4574015 -0.40733334 8.9960003 4289309348
-2.4397635 -0.40728804 8.9949999 4289243555
-2.4223986 -0.40728804 8.9949999 4289243555
-1.3098679 -0.22182371 4.8990002 4289177762
-1.2961631 -0.22109923 4.8829999 4289243555
-1.2867365 -0.22109923 4.8829999 4289374884
-1.2773098 -0.22109923 4.8829999 4289309345
-1.2678832 -0.22109923 4.8829999 4289375138
-1.2584566 -0.22109923 4.8829999 4289243552
-1.2490299 -0.22109923 4.8829999 4289309345
-1.2396033 -0.22109923 4.8829999 4289046173
-1.2301766 -0.22109923 4.8829999 4289177505
-1.22075 -0.22109923 4.8829999 4288914333
-1.2113234 -0.22109923 4.8829999 4289046173
-1.138639 -0.20946242 4.6259999 4288914587
-1.1297085 -0.20946242 4.6259999 4288914587
-1.120778 -0.20946242 4.6259999 4288913817
-1.1118475 -0.20946242 4.6259999 4288913817
-1.102917 -0.20946242 4.6259999 4288848022
-1.0939865 -0.20946242 4.6259999 4288716436
-1.0850559 -0.20946242 4.6259999 4288848022
-1.0761255 -0.20946242 4.6259999 4288848022
-1.0671949 -0.20946242 4.6259999 4288913302
-1.0582645 -0.20946242 4.6259999 4289242267
-1.0493339 -0.20946242 4.6259999 4289242267
-1.0404035 -0.20946242 4.6259999 4289373855
-1.0314729 -0.20946242 4.6259999 4289505952
-0.96595556 -0.1978709 4.3699999 4289505952
-0.95730019 -0.19782563 4.369 4289505952
-0.94886583 -0.19782563 4.369 4289769124
-0.94043148 -0.19782563 4.369 4289703331
-0.93199712 -0.19782563 4.369 4289768611
-0.92356271 -0.19782563 4.369 4289768611
-0.91512835 -0.19782563 4.369 4289439646
-0.90669399 -0.19782563 4.369 4288650130
-0.89825964 -0.19782563 4.369 4288057475
-0.88982528 -0.19782563 4.369 4287794303
-0.88139093 -0.19782563 4.369 4287070580
-0.87295657 -0.19782563 4.369 4286479213
-0.86452222 -0.19782563 4.369 4286478959
-0.8560878 -0.19782563 4.369 4287136889
-0.84765345 -0.19782563 4.369 4288123784
-0.79004532 -0.1862341 4.1129999 4288321417
-0.78191507 -0.18618882 4.112 4288321417
-0.7739768 -0.18618882 4.112 4288585102
-0.7660386 -0.18618882 4.112 4288585102
-0.75810039 -0.18618882 4.112 4288584848
-0.75016218 -0.18618882 4.112 4288716434
-0.74222392 -0.18618882 4.112 4289045653
-0.73428571 -0.18618882 4.112 4289045140
-0.72634751 -0.18618882 4.112 4288321417
-0.71840924 -0.18618882 4.112 4288057475
-0.71047103 -0.18618882 4.112 4287531131
-0.65862453 -0.17455202 3.855 4287136373
-0.65118241 -0.17455202 3.855 4287793790
-0.64374036 -0.17455202 3.855 4288518026
-0.63629824 -0.17455202 3.855 4288649610
-0.62885618 -0.17455202 3.855 4289044368
-0.62141412 -0.17455202 3.855 4289374357
-0.61397201 -0.17455202 3.855 4289242771
-0.60652995 -0.17455202 3.855 4288914319
-0.59908783 -0.17455202 3.855 4289045905
-0.59164578 -0.17455202 3.855 4288519561
-0.58420366 -0.17455202 3.855 4288059010
-0.5767616 -0.17455202 3.855 4287927424
-0.56931949 -0.17455202 3.855 4287597946
-0.56187743 -0.17455202 3.855 4287071348
-0.55443531 -0.17455202 3.855 4287005557
-0.54699326 -0.17455202 3.855 4287728256
-0.53955114 -0.17455202 3.855 4288781450
-0.53210908 -0.17455202 3.855 4289044622
-0.52466697 -0.17455202 3.855 4288781966
-0.51722491 -0.17455202 3.855 4288387210
-0.50978285 -0.17455202 3.855 4288124038
-0.50234073 -0.17455202 3.855 4287991680
-0.49489865 -0.17455202 3.855 4287663485
-0.48745656 -0.17455202 3.855 4287466106
-0.48001447 -0.17455202 3.855 4287400313
-0.47257239 -0.17455202 3.855 4287466106
-0.4651303 -0.17455202 3.855 4287728508
-0.45768821 -0.17455202 3.855 4288254339
-0.45024616 -0.17455202 3.855 4288518794
-0.44280407 -0.17455202 3.855 4288387721
-0.43536198 -0.17455202 3.855 4287861377
-0.42791989 -0.17455202 3.855 4287532414
-0.42047781 -0.17455202 3.855 4287466621
-0.41303572 -0.17455202 3.855 4287334522
-0.40559363 -0.17455202 3.855 4287202934
-0.39815155 -0.17455202 3.855 4286939762
-0.39070946 -0.17455202 3.855 4286742383
-0.35781562 -0.1629605 3.599 4286610799
-0.35077026 -0.16291523 3.598 4286413420
-0.34382433 -0.16291523 3.598 4286347886
-0.33687839 -0.16291523 3.598 4286413679
-0.32993245 -0.16291523 3.598 4286479472
-0.32298648 -0.16291523 3.598 4286479472
-0.29355407 -0.15132371 3.342 4286479472
-0.28701642 -0.15127842 3.3410001 4286479472
-0.2805666 -0.15127842 3.3410001 4286676851
-0.27411681 -0.15127842 3.3410001 4286808437
-0.267667 -0.15127842 3.3410001 4286611058
-0.26121718 -0.15127842 3.3410001 4286676338
-0.25476739 -0.15127842 3.3410001 4286742131
-0.24831757 -0.15127842 3.3410001 4286545265
-0.24186777 -0.15127842 3.3410001 4286479472
-0.23541796 -0.15127842 3.3410001 4286479472
-0.22896816 -0.15127842 3.3410001 4286413166
-0.22251834 -0.15127842 3.3410001 4286281580
-0.21606854 -0.15127842 3.3410001 4286281580
-0.20961873 -0.15127842 3.3410001 4286084714
-0.20316893 -0.15127842 3.3410001 4285953128
-0.19671911 -0.15127842 3.3410001 4285953128
-0.19026931 -0.15127842 3.3410001 4285887335
-0.1838195 -0.15127842 3.3410001 4285953128
-0.1773697 -0.15127842 3.3410001 4285887335
-0.1709199 -0.15127842 3.3410001 4285755751
-0.16447008 -0.15127842 3.3410001 4285755751
-0.15802027 -0.15127842 3.3410001 4285887339
-0.15157047 -0.15127842 3.3410001 4285755753
-0.14512067 -0.15127842 3.3410001 4284571744
-0.13867085 -0.15127842 3.3410001 4282203196
-0.13222104 -0.15127842 3.3410001 4281088060
-0.12577124 -0.15127842 3.3410001 4280693818
-0.11932143 -0.15127842 3.3410001 4280233267
-0.11287162 -0.15127842 3.3410001 4280101681
-0.10642182 -0.15127842 3.3410001 4280364337
-0.09997201 -0.15127842 3.3410001 4280231466
-0.093522206 -0.15127842 3.3410001 4279837732
-0.087072395 -0.15127842 3.3410001 4279969318
-0.080622591 -0.15127842 3.3410001 4279837732
-0.07417278 -0.15127842 3.3410001 4279377181
-0.067722976 -0.15127842 3.3410001 4279441437
-0.061273169 -0.15127842 3.3410001 4278915606
-0.054823361 -0.15127842 3.3410001 4278981140
-0.048373554 -0.15127842 3.3410001 4279046161
-0.041923746 -0.15127842 3.3410001 4278914573
-0.035473939 -0.15127842 3.3410001 4278914573
-0.029024132 -0.15127842 3.3410001 4278586891
-0.022574324 -0.15127842 3.3410001 4278586891
-0.016124519 -0.15127842 3.3410001 4278717964
-0.0096747102 -0.15127842 3.3410001 4278782987
-0.0032249035 -0.15127842 3.3410001 4278782987
0.0032249035 -0.15127842 3.3410001 4278848010
0.0096747102 -0.15127842 3.3410001 4278520585
0.016124519 -0.15127842 3.3410001 4278586378
0.022574324 -0.15127842 3.3410001 4278454792
0.029024132 -0.15127842 3.3410001 4278651403
0.035473939 -0.15127842 3.3410001 4278651403
0.041923746 -0.15127842 3.3410001 4278586380
0.048373554 -0.15127842 3.3410001 4278520587
0.054823361 -0.15127842 3.3410001 4278520585
0.061273169 -0.15127842 3.3410001 4278520585
-2.8599844 -0.19976878 4.6079998 4282467130
-2.8622258 -0.20054913 4.6259999 4282598459
-2.8532953 -0.20054913 4.6259999 4282860346
-2.8443649 -0.20054913 4.6259999 4282794553
-2.8354344 -0.20054913 4.6259999 4282860346
-2.8265038 -0.20054913 4.6259999 4282991932
-2.8175733 -0.20054913 4.6259999 4282728760
-2.8086429 -0.20054913 4.6259999 4282400308
-2.7997124 -0.20054913 4.6259999 4282400310
-2.7907817 -0.20054913 4.6259999 4282597689
-2.7818513 -0.20054913 4.6259999 4282795068
-2.7729208 -0.20054913 4.6259999 4282860861
-2.7639904 -0.20054913 4.6259999 4282794301
-2.7550597 -0.20054913 4.6259999 4282663230
-2.7461293 -0.20054913 4.6259999 4282597437
-2.7371988 -0.20054913 4.6259999 4282664000
-2.7282684 -0.20054913 4.6259999 4282466621
-2.7193377 -0.20054913 4.6259999 4282335033
-2.7104073 -0.20054913 4.6259999 4280952864
-2.7014768 -0.20054913 4.6259999 4280163864
-2.6925464 -0.20054913 4.6259999 4279507480
-2.6836157 -0.20054913 4.6259999 4279507480
-2.6746852 -0.20054913 4.6259999 4279506710
-2.6657548 -0.20054913 4.6259999 4279309331
-2.6568244 -0.20054913 4.6259999 4279046929
-2.6478937 -0.20054913 4.6259999 4278981138
-2.6389632 -0.20054913 4.6259999 4279111952
-2.6300328 -0.20054913 4.6259999 4279111952
-2.6211023 -0.20054913 4.6259999 4278717964
-2.6121719 -0.20054913 4.6259999 4278718477
-2.6032412 -0.20054913 4.6259999 4278718730
-2.5943108 -0.20054913 4.6259999 4278784010
-2.5853803 -0.20054913 4.6259999 4278849033
-2.5764499 -0.20054913 4.6259999 4278652424
-2.5675192 -0.20054913 4.6259999 4278652424
-2.5585887 -0.20054913 4.6259999 4278652424
-2.5496583 -0.20054913 4.6259999 4278717447
-2.5407279 -0.20054913 4.6259999 4278651654
-2.6724527 -0.21169075 4.8829999 4278717447
-2.6630261 -0.21169075 4.8829999 4278717447
-2.6535993 -0.21169075 4.8829999 4278783240
-2.6244941 -0.21086705 4.8639998 4278651654
-2.6253195 -0.21169075 4.8829999 4278717447
-2.6158929 -0.21169075 4.8829999 4279176199
-2.6064661 -0.21169075 4.8829999 4281406990
-2.5970395 -0.21169075 4.8829999 4281602570
-2.5876129 -0.21169075 4.8829999 4279962887
-2.5781863 -0.21169075 4.8829999 4279962887
-2.5687597 -0.21169075 4.8829999 4279504905
-2.5593328 -0.21169075 4.8829999 4278980101
-2.5499063 -0.21169075 4.8829999 4278849031
-2.5404797 -0.21169075 4.8829999 4278652424
-2.5310531 -0.21169075 4.8829999 4278718217
-2.5216265 -0.21169075 4.8829999 4278914826
-2.5121996 -0.21169075 4.8829999 4279046412
-2.502773 -0.21169075 4.8829999 4278914826
-0.0097017372 -0.0008236994 0.018999999 4278915596
-2.4744933 -0.21169075 4.8829999 4278981136
-2.4650664 -0.21169075 4.8829999 4279244308
-2.4556398 -0.21169075 4.8829999 4283189311
-2.5749614 -0.22283237 5.1399999 4283189563
-2.5650384 -0.22283237 5.1399999 4283255354
-2.5551157 -0.22283237 5.1399999 4282992184
-2.545193 -0.22283237 5.1399999 4283452994
-2.5352702 -0.22283237 5.1399999 4284111178
-2.5253475 -0.22283237 5.1399999 4282926137
-2.5154247 -0.22283237 5.1399999 4282466871
-2.5055017 -0.22283237 5.1399999 4282269492
-2.495579 -0.22283237 5.1399999 4282269492
-2.4856563 -0.22283237 5.1399999 4282137904
-2.4757335 -0.22283237 5.1399999 4282202927
-2.4658108 -0.22283237 5.1399999 4282005548
-2.455888 -0.22283237 5.1399999 4282400306
-2.4459653 -0.22283237 5.1399999 4285098843
-2.4360423 -0.22283237 5.1399999 4284046410
-2.4261196 -0.22283237 5.1399999 4283321147
-2.4161968 -0.22283237 5.1399999 4282795316
-2.4062741 -0.22283237 5.1399999 4285558372
-2.3963513 -0.22283237 5.1399999 4285361761
-2.3864286 -0.22283237 5.1399999 4283584582
-2.3765056 -0.22283237 5.1399999 4283189822
-2.3665829 -0.22283237 5.1399999 4283847754
-2.3566601 -0.22283237 5.1399999 4285163614
-2.3467374 -0.22283237 5.1399999 4286545265
-2.3368146 -0.22283237 5.1399999 4286413679
-2.3268919 -0.22283237 5.1399999 4286149224
-2.3169692 -0.22283237 5.1399999 4286216041
-2.3070462 -0.22283237 5.1399999 4286545517
-2.2971234 -0.22283237 5.1399999 4287137654
-2.2872007 -0.22283237 5.1399999 4281547314
-2.2772779 -0.22283237 5.1399999 4282139202
-2.2673552 -0.22283237 5.1399999 4282271301
-2.2574325 -0.22283237 5.1399999 4282205510
-2.2475095 -0.22283237 5.1399999 4287007114
-0.0087065632 -0.000867052 0.02 4291020218
-2.2177413 -0.22283237 5.1399999 4290098087
-2.2078185 -0.22283237 5.1399999 4290623918
-2.1978958 -0.22283237 5.1399999 4291281848
-2.187973 -0.22283237 5.1399999 4291347643
-2.17805 -0.22283237 5.1399999 4291281850
-2.1681273 -0.22283237 5.1399999 4291150264
-2.1582046 -0.22283237 5.1399999 4290952885
-2.1482818 -0.22283237 5.1399999 4290887092
-2.1383591 -0.22283237 5.1399999 4290952885
-2.1284363 -0.22283237 5.1399999 4290295470
-2.1185133 -0.22283237 5.1399999 4289044890
-2.1085906 -0.22283237 5.1399999 4287992715
-2.2036014 -0.23397398 5.3969998 4288190094
-2.1931825 -0.23397398 5.3969998 4288387473
-2.1827633 -0.23397398 5.3969998 4288847511
-2.1723444 -0.23397398 5.3969998 4288847511
-0.0084121618 -0.0009104046 0.021 4288847511
-3.0917685 -0.35514453 8.1920004 4288254604
-3.0879691 -0.3565318 8.224 4288913302
-3.0720928 -0.3565318 8.224 4288321165
-3.0562162 -0.3565318 8.224 4288057993
-3.0403397 -0.3565318 8.224 4288057993
-2.8815753 -0.3565318 8.224 4290361009
-2.8656988 -0.3565318 8.224 4290624951
-2.8498223 -0.3565318 8.224 4290559158
-2.833946 -0.3565318 8.224 4290624951
-2.8180695 -0.3565318 8.224 4290559158
-2.8021929 -0.3565318 8.224 4290624951
-2.7863166 -0.3565318 8.224 4290888123
-2.7704401 -0.3565318 8.224 4290690744
-2.7545638 -0.3565318 8.224 4290229423
-2.7386873 -0.3565318 8.224 4289703079
-2.7228107 -0.3565318 8.224 4289637286
-2.7069345 -0.3565318 8.224 4289834665
-2.6910579 -0.3565318 8.224 4290163630
-2.6751814 -0.3565318 8.224 4290229423
-2.6593051 -0.3565318 8.224 4290295986
-2.7260356 -0.3676734 8.4809999 4290559158
-2.7096632 -0.3676734 8.4809999 4290493365
-2.6932905 -0.3676734 8.4809999 4290295986
-2.676918 -0.3676734 8.4809999 4290295986
-2.6605453 -0.3676734 8.4809999 4290295986
-2.6441727 -0.3676734 8.4809999 4290164400
-2.6278002 -0.3676734 8.4809999 4290164400
-2.690254 -0.37877169 8.7370005 4290098607
-2.6736929 -0.37881503 8.7379999 4290098607
-2.6568244 -0.37881503 8.7379999 4290032814
-2.6399555 -0.37881503 8.7379999 4290098607
-2.6230869 -0.37881503 8.7379999 4290164400
-2.6062181 -0.37881503 8.7379999 4290230193
-2.6652105 -0.38991332 8.9940004 4290230193
-2.6481419 -0.38995665 8.9949999 4290164400
-2.6307769 -0.38995665 8.9949999 4289967021
-2.6134121 -0.38995665 8.9949999 4287927438
-2.5960472 -0.38995665 8.9949999 4288059024
-2.5786824 -0.38995665 8.9949999 4289835689
-2.5613174 -0.38995665 8.9949999 4289835689
-2.5439527 -0.38995665 8.9949999 4289638310
-2.5265877 -0.38995665 8.9949999 4289374114
-2.509223 -0.38995665 8.9949999 4289834665
-2.491858 -0.38995665 8.9949999 4289768872
-2.4744933 -0.38995665 8.9949999 4289506470
-2.4571283 -0.38995665 8.9949999 4289506470
-2.4397635 -0.38995665 8.9949999 4289243298
-2.4223986 -0.38995665 8.9949999 4289309091
-1.3098679 -0.2123844 4.8990002 4289243555
-1.2961631 -0.21169075 4.8829999 4289243555
-1.2867365 -0.21169075 4.8829999 4289374884
-1.2773098 -0.21169075 4.8829999 4289309345
-1.2678832 -0.21169075 4.8829999 4289375138
-1.2584566 -0.21169075 4.8829999 4289309345
-1.2490299 -0.21169075 4.8829999 4289309345
-1.2396033 -0.21169075 4.8829999 4289177505
-1.2301766 -0.21169075 4.8829999 4289243298
-1.22075 -0.21169075 4.8829999 4289045919
-1.2113234 -0.21169075 4.8829999 4289046173
-1.138639 -0.20054913 4.6259999 4289176989
-1.1297085 -0.20054913 4.6259999 4289045403
-1.120778 -0.20054913 4.6259999 4289045403
-1.1118475 -0.20054913 4.6259999 4288979610
-1.102917 -0.20054913 4.6259999 4288913815
-1.0939865 -0.20054913 4.6259999 4288782229
-1.0850559 -0.20054913 4.6259999 4288848022
-1.0761255 -0.20054913 4.6259999 4288913815
-1.0671949 -0.20054913 4.6259999 4288979608
-1.0582645 -0.20054913 4.6259999 4289242780
-1.0493339 -0.20054913 4.6259999 4289308573
-1.0404035 -0.20054913 4.6259999 4289308573
-0.9741689 -0.18940751 4.369 4289637538
-0.96573454 -0.18940751 4.369 4289637538
-0.95730019 -0.18940751 4.369 4289703331
-0.94886583 -0.18940751 4.369 4289769124
-0.94043148 -0.18940751 4.369 4289769124
-0.93199712 -0.18940751 4.369 4289768611
-0.92356271 -0.18940751 4.369 4289768611
-0.91512835 -0.18940751 4.369 4289505439
-0.90669399 -0.18940751 4.369 4288780946
-0.89825964 -0.18940751 4.369 4288057221
-0.88982528 -0.18940751 4.369 4287728256
-0.88139093 -0.18940751 4.369 4287004787
-0.87295657 -0.18940751 4.369 4286479213
-0.86452222 -0.18940751 4.369 4286478959
-0.8560878 -0.18940751 4.369 4287136889
-0.79779148 -0.1782659 4.112 4288124038
-0.78985327 -0.1782659 4.112 4288321417
-0.78191507 -0.1782659 4.112 4288387210
-0.7739768 -0.1782659 4.112 4288781968
-0.7660386 -0.1782659 4.112 4288782481
-0.75810039 -0.1782659 4.112 4288585102
-0.75016218 -0.1782659 4.112 4288716688
-0.74222392 -0.1782659 4.112 4289110933
-0.73428571 -0.1782659 4.112 4288979347
-0.72634751 -0.1782659 4.112 4288386440
-0.71840924 -0.1782659 4.112 4287991682
-0.71047103 -0.1782659 4.112 4287465338
-0.65862453 -0.16712427 3.855 4287070580
-0.65118241 -0.16712427 3.855 4288122501
-0.64374036 -0.16712427 3.855 4288649099
-0.63629824 -0.16712427 3.855 4288715403
-0.62885618 -0.16712427 3.855 4289110161
-0.62141412 -0.16712427 3.855 4289374357
-0.61397201 -0.16712427 3.855 4289242771
-0.60652995 -0.16712427 3.855 4288979345
-0.59908783 -0.16712427 3.855 4288913552
-0.59164578 -0.16712427 3.855 4288387208
-0.58420366 -0.16712427 3.855 4287993217
-0.5767616 -0.16712427 3.855 4287795838
-0.56931949 -0.16712427 3.855 4287334520
-0.56187743 -0.16712427 3.855 4286939764
-0.55443531 -0.16712427 3.855 4287400828
-0.54699326 -0.16712427 3.855 4288255370
-0.53955114 -0.16712427 3.855 4289044368
-0.53210908 -0.16712427 3.855 4289110415
-0.52466697 -0.16712427 3.855 4288912782
-0.51722491 -0.16712427 3.855 4288255370
-0.50978285 -0.16712427 3.855 4288058245
-0.50234073 -0.16712427 3.855 4287795073
-0.49489865 -0.16712427 3.855 4287597692
-0.48745656 -0.16712427 3.855 4287466106
-0.48001447 -0.16712427 3.855 4287400313
-0.47257239 -0.16712427 3.855 4287531899
-0.4651303 -0.16712427 3.855 4287991680
-0.45768821 -0.16712427 3.855 4288584071
-0.45024616 -0.16712427 3.855 4288649864
-0.44280407 -0.16712427 3.855 4288321669
-0.43536198 -0.16712427 3.855 4287795325
-0.42791989 -0.16712427 3.855 4287400826
-0.42047781 -0.16712427 3.855 4287269240
-0.41303572 -0.16712427 3.855 4287202936
-0.40559363 -0.16712427 3.855 4287071348
-0.39815155 -0.16712427 3.855 4287004785
-0.39070946 -0.16712427 3.855 4286873199
-0.35781562 -0.15602601 3.599 4286479211
-0.35077026 -0.15598266 3.598 4286413418
-0.34382433 -0.15598266 3.598 4286413933
-0.33687839 -0.15598266 3.598 4286479726
-0.32993245 -0.15598266 3.598 4286479472
-0.29991603 -0.14484105 3.3410001 4286413679
-0.29346621 -0.14484105 3.3410001 4286479472
-0.28701642 -0.14484105 3.3410001 4286545265
-0.2805666 -0.14484105 3.3410001 4286874230
-0.27411681 -0.14484105 3.3410001 4286808437
-0.267667 -0.14484105 3.3410001 4286676851
-0.26121718 -0.14484105 3.3410001 4286676338
-0.25476739 -0.14484105 3.3410001 4286742131
-0.24831757 -0.14484105 3.3410001 4286610545
-0.24186777 -0.14484105 3.3410001 4286676338
-0.23541796 -0.14484105 3.3410001 4286610545
-0.22896816 -0.14484105 3.3410001 4286413166
-0.22251834 -0.14484105 3.3410001 4286215787
-0.21606854 -0.14484105 3.3410001 4286215787
-0.20961873 -0.14484105 3.3410001 4286149994
-0.20316893 -0.14484105 3.3410001 4285953128
-0.19671911 -0.14484105 3.3410001 4285953128
-0.19026931 -0.14484105 3.3410001 4285952615
-0.1838195 -0.14484105 3.3410001 4285952615
-0.1773697 -0.14484105 3.3410001 4285755749
-0.1709199 -0.14484105 3.3410001 4285755751
-0.16447008 -0.14484105 3.3410001 4285755751
-0.15802027 -0.14484105 3.3410001 4285953130
-0.15157047 -0.14484105 3.3410001 4285755751
-0.14512067 -0.14484105 3.3410001 4285032548
-0.13867085 -0.14484105 3.3410001 4282795586
-0.13222104 -0.14484105 3.3410001 4281088058
-0.12577124 -0.14484105 3.3410001 4280693816
-0.11932143 -0.14484105 3.3410001 4280167474
-0.11287162 -0.14484105 3.3410001 4280167474
-0.10642182 -0.14484105 3.3410001 4280298544
-0.09997201 -0.14484105 3.3410001 4280231466
-0.093522206 -0.14484105 3.3410001 4279968548
-0.087072395 -0.14484105 3.3410001 4279969318
-0.080622591 -0.14484105 3.3410001 4279968548
-0.07417278 -0.14484105 3.3410001 4279311388
-0.067722976 -0.14484105 3.3410001 4279244058
-0.061273169 -0.14484105 3.3410001 4278915860
-0.054823361 -0.14484105 3.3410001 4278981138
-0.048373554 -0.14484105 3.3410001 4278915343
-0.041923746 -0.14484105 3.3410001 4278914573
-0.035473939 -0.14484105 3.3410001 4278914573
-0.029024132 -0.14484105 3.3410001 4278586891
-0.022574324 -0.14484105 3.3410001 4278586891
-0.016124519 -0.14484105 3.3410001 4278717964
-0.0096747102 -0.14484105 3.3410001 4278782987
-0.0032249035 -0.14484105 3.3410001 4278782987
0.0032249035 -0.14484105 3.3410001 4278717194
0.0096747102 -0.14484105 3.3410001 4278520585
0.016124519 -0.14484105 3.3410001 4278717194
0.022574324 -0.14484105 3.3410001 4278651401
0.029024132 -0.14484105 3.3410001 4278717196
0.035473939 -0.14484105 3.3410001 4278585610
0.041923746 -0.14484105 3.3410001 4278520587
0.048373554 -0.14484105 3.3410001 4278586380
0.054823361 -0.14484105 3.3410001 4278520585
0.061273169 -0.14484105 3.3410001 4278520585
-2.8599844 -0.19089016 4.6079998 4282467130
-2.8622258 -0.19163583 4.6259999 4282532666
-2.8532953 -0.19163583 4.6259999 4282598459
-2.8443649 -0.19163583 4.6259999 4282466871
-2.8354344 -0.19163583 4.6259999 4282860346
-2.8265038 -0.19163583 4.6259999 4282926139
-2.8175733 -0.19163583 4.6259999 4282531381
-2.8086429 -0.19163583 4.6259999 4282466101
-2.7997124 -0.19163583 4.6259999 4282400056
-2.7907817 -0.19163583 4.6259999 4282465849
-2.7818513 -0.19163583 4.6259999 4282597435
-2.7729208 -0.19163583 4.6259999 4282729021
-2.7639904 -0.19163583 4.6259999 4282729021
-2.7550597 -0.19163583 4.6259999 4282465851
-2.7461293 -0.19163583 4.6259999 4282335035
-2.7371988 -0.19163583 4.6259999 4282532414
-2.7282684 -0.19163583 4.6259999 4282466621
-2.7193377 -0.19163583 4.6259999 4282269494
-2.7104073 -0.19163583 4.6259999 4280492829
-2.7014768 -0.19163583 4.6259999 4279966485
-2.6925464 -0.19163583 4.6259999 4279507480
-2.6836157 -0.19163583 4.6259999 4279375894
-2.6746852 -0.19163583 4.6259999 4279178515
-2.6657548 -0.19163583 4.6259999 4279243538
-2.6568244 -0.19163583 4.6259999 4278981136
-2.6478937 -0.19163583 4.6259999 4278981138
-2.6389632 -0.19163583 4.6259999 4279111952
-2.6300328 -0.19163583 4.6259999 4279046159
-2.6211023 -0.19163583 4.6259999 4278783757
-2.6121719 -0.19163583 4.6259999 4278652684
-2.6032412 -0.19163583 4.6259999 4278718730
-2.5943108 -0.19163583 4.6259999 4278718217
-2.5853803 -0.19163583 4.6259999 4278979849
-2.5764499 -0.19163583 4.6259999 4278652424
-2.5675192 -0.19163583 4.6259999 4278652424
-2.5585887 -0.19163583 4.6259999 4278652424
-2.5496583 -0.19163583 4.6259999 4278783240
-2.5407279 -0.19163583 4.6259999 4278717447
-2.6724527 -0.20228226 4.8829999 4278717447
-2.6630261 -0.20228226 4.8829999 4278717447
-2.6535993 -0.20228226 4.8829999 4278717447
-2.6441727 -0.20228226 4.8829999 4278717447
-0.01025193 -0.00078709051 0.018999999 4278717447
-2.6158929 -0.20228226 4.8829999 4279176199
-2.6064661 -0.20228226 4.8829999 4281275406
-2.5970395 -0.20228226 4.8829999 4281536777
-2.5876129 -0.20228226 4.8829999 4280224776
-2.5781863 -0.20228226 4.8829999 4280158983
-2.5687597 -0.20228226 4.8829999 4279504905
-2.5593328 -0.20228226 4.8829999 4278980101
-2.5499063 -0.20228226 4.8829999 4278979847
-2.5404797 -0.20228226 4.8829999 4278914054
-2.5310531 -0.20228226 4.8829999 4278914826
-2.5216265 -0.20228226 4.8829999 4279046412
-2.5121996 -0.20228226 4.8829999 4279046412
-2.4836447 -0.20149517 4.8639998 4278981389
-2.4839199 -0.20228226 4.8829999 4278981136
-2.4744933 -0.20228226 4.8829999 4278981136
-2.5943022 -0.21288729 5.1389999 4280162843
-2.5848842 -0.2129287 5.1399999 4283189824
-2.5749614 -0.2129287 5.1399999 4282531379
-2.5650384 -0.2129287 5.1399999 4282991930
-2.5551157 -0.2129287 5.1399999 4282795064
-2.545193 -0.2129287 5.1399999 4283584834
-2.5352702 -0.2129287 5.1399999 4283584834
-2.5253475 -0.2129287 5.1399999 4282663732
-2.5154247 -0.2129287 5.1399999 4282269490
-2.5055017 -0.2129287 5.1399999 4282203697
-2.495579 -0.2129287 5.1399999 4282137904
-2.4856563 -0.2129287 5.1399999 4282072111
-2.4757335 -0.2129287 5.1399999 4281939755
-2.4658108 -0.2129287 5.1399999 4281807656
-2.455888 -0.2129287 5.1399999 4286018662
-2.4459653 -0.2129287 5.1399999 4284440911
-2.4360423 -0.2129287 5.1399999 4283387455
-2.4261196 -0.2129287 5.1399999 4283189563
-2.4161968 -0.2129287 5.1399999 4282728758
-2.4062741 -0.2129287 5.1399999 4285163612
-2.3963513 -0.2129287 5.1399999 4284571475
-2.3864286 -0.2129287 5.1399999 4283584580
-2.3765056 -0.2129287 5.1399999 4283321410
-2.3665829 -0.2129287 5.1399999 4284242514
-2.3566601 -0.2129287 5.1399999 4286347888
-2.3467374 -0.2129287 5.1399999 4286545265
-2.3368146 -0.2129287 5.1399999 4285953128
-2.3268919 -0.2129287 5.1399999 4285952615
-2.3169692 -0.2129287 5.1399999 4286215787
-2.3070462 -0.2129287 5.1399999 4286545519
-2.2971234 -0.2129287 5.1399999 4286677105
-2.2872007 -0.2129287 5.1399999 4286875511
-2.2772779 -0.2129287 5.1399999 4282139453
-2.2673552 -0.2129287 5.1399999 4282862927
-2.2574325 -0.2129287 5.1399999 4287927189
-2.2475095 -0.2129287 5.1399999 4291414717
-2.2375867 -0.2129287 5.1399999 4290625201
-2.227664 -0.2129287 5.1399999 4290031781
-2.2177413 -0.2129287 5.1399999 4290294953
-2.2078185 -0.2129287 5.1399999 4291216055
-2.1978958 -0.2129287 5.1399999 4291281848
-2.187973 -0.2129287 5.1399999 4291281848
-2.17805 -0.2129287 5.1399999 4291150264
-2.1681273 -0.2129287 5.1399999 4290952885
-2.1582046 -0.2129287 5.1399999 4290887092
-2.1482818 -0.2129287 5.1399999 4290887092
-2.1383591 -0.2129287 5.1399999 4290887605
-2.1284363 -0.2129287 5.1399999 4290031783
-2.1185133 -0.2129287 5.1399999 4288584339
-2.1085906 -0.2129287 5.1399999 4287926409
-3.2373128 -0.3499653 8.448 4286808439
-3.2335858 -0.35133237 8.4809999 4286873719
-3.2172134 -0.35133237 8.4809999 4288254087
-3.104223 -0.34072739 8.2250004 4288123014
-3.0879691 -0.34068593 8.224 4288781716
-3.0720928 -0.34068593 8.224 4288123786
-3.0562162 -0.34068593 8.224 4287992200
-3.0403397 -0.34068593 8.224 4288057993
-3.0244634 -0.34068593 8.224 4288452753
-3.0085869 -0.34068593 8.224 4288913304
-2.9927104 -0.34068593 8.224 4289900199
-2.9494364 -0.33936033 8.1920004 4290690228
-2.945081 -0.34068593 8.224 4290361263
-2.9292047 -0.34068593 8.224 4289900712
-2.9133282 -0.34068593 8.224 4289703333
-2.8974516 -0.34068593 8.224 4290098091
-2.8815753 -0.34068593 8.224 4290624181
-2.8656988 -0.34068593 8.224 4290755767
-2.8498223 -0.34068593 8.224 4290689974
-2.833946 -0.34068593 8.224 4290559158
-2.8180695 -0.34068593 8.224 4290559158
-2.8021929 -0.34068593 8.224 4290756537
-2.7863166 -0.34068593 8.224 4290888123
-2.7704401 -0.34068593 8.224 4290558388
-2.7545638 -0.34068593 8.224 4290031531
-2.7386873 -0.34068593 8.224 4289702566
-0.010594595 -0.0013256263 0.032000002 4289703079
-2.6910579 -0.34068593 8.224 4290229423
-2.6751814 -0.34068593 8.224 4290361009
-2.6593051 -0.34068593 8.224 4290426802
-2.6434286 -0.34068593 8.224 4290689974
-2.627552 -0.34068593 8.224 4290426802
-2.6116757 -0.34068593 8.224 4290295986
-2.676918 -0.35133237 8.4809999 4290230193
-2.6605453 -0.35133237 8.4809999 4290230193
-2.6441727 -0.35133237 8.4809999 4290164400
-2.6278002 -0.35133237 8.4809999 4290164400
-2.6114275 -0.35133237 8.4809999 4290032814
-2.5950551 -0.35133237 8.4809999 4290098607
-2.5786824 -0.35133237 8.4809999 4290032814
-2.6396537 -0.3619374 8.7370005 4290098607
-2.6230869 -0.3619788 8.7379999 4290230193
-2.6062181 -0.3619788 8.7379999 4290230193
-2.5893495 -0.3619788 8.7379999 4290230193
-2.5724807 -0.3619788 8.7379999 4290230193
-2.5288651 -0.36057034 8.7040005 4289045919
-2.5218744 -0.3619788 8.7379999 4287730318
-2.5050058 -0.3619788 8.7379999 4289638056
-2.561033 -0.37258384 8.9940004 4289703849
-2.5439527 -0.37262523 8.9949999 4289374884
-2.5265877 -0.37262523 8.9949999 4289176735
-2.509223 -0.37262523 8.9949999 4289834665
-2.491858 -0.37262523 8.9949999 4289768872
-2.4744933 -0.37262523 8.9949999 4289637286
-2.4571283 -0.37262523 8.9949999 4289506470
-2.4397635 -0.37262523 8.9949999 4289243298
-1.3005096 -0.20149517 4.8639998 4289374884
-1.2961631 -0.20228226 4.8829999 4289374884
-1.2867365 -0.20228226 4.8829999 4289309091
-1.2773098 -0.20228226 4.8829999 4289309345
-1.2678832 -0.20228226 4.8829999 4289375138
-1.2584566 -0.20228226 4.8829999 4289375138
-1.2490299 -0.20228226 4.8829999 4289375138
-1.2396033 -0.20228226 4.8829999 4289309345
-1.2301766 -0.20228226 4.8829999 4289243552
-1.15675 -0.19167726 4.6269999 4289111966
-1.1475695 -0.19163583 4.6259999 4289176987
-1.138639 -0.19163583 4.6259999 4289176987
-1.1297085 -0.19163583 4.6259999 4289045401
-1.120778 -0.19163583 4.6259999 4289045401
-1.1118475 -0.19163583 4.6259999 4288979608
-1.102917 -0.19163583 4.6259999 4288913817
-1.0939865 -0.19163583 4.6259999 4288979608
-1.0850559 -0.19163583 4.6259999 4289045401
-1.0761255 -0.19163583 4.6259999 4289045401
-1.0671949 -0.19163583 4.6259999 4288979608
-1.0582645 -0.19163583 4.6259999 4289242782
-1.0493339 -0.19163583 4.6259999 4289374368
-1.0404035 -0.19163583 4.6259999 4289505954
-0.9741689 -0.1809894 4.369 4289703331
-0.96573454 -0.1809894 4.369 4289703331
-0.95730019 -0.1809894 4.369 4289703331
-0.94886583 -0.1809894 4.369 4289703331
-0.94043148 -0.1809894 4.369 4289769124
-0.93199712 -0.1809894 4.369 4289769124
-0.92356271 -0.1809894 4.369 4289834917
-0.91512835 -0.1809894 4.369 4289505952
-0.90669399 -0.1809894 4.369 4288650130
-0.89825964 -0.1809894 4.369 4287860612
-0.88982528 -0.1809894 4.369 4287531647
-0.88139093 -0.1809894 4.369 4286873201
-0.87295657 -0.1809894 4.369 4286479213
-0.0033638999 -0.00070423895 0.017000001 4286676592
-0.79779148 -0.17034297 4.112 4288123784
-0.78985327 -0.17034297 4.112 4288321676
-0.78191507 -0.17034297 4.112 4288519309
-0.7739768 -0.17034297 4.112 4288979347
-0.7660386 -0.17034297 4.112 4288979347
-0.75810039 -0.17034297 4.112 4288847761
-0.75016218 -0.17034297 4.112 4288781968
-0.74222392 -0.17034297 4.112 4289242519
-0.73428571 -0.17034297 4.112 4288979347
-0.72634751 -0.17034297 4.112 4288386440
-0.71840924 -0.17034297 4.112 4288057475
-0.71047103 -0.17034297 4.112 4287465338
-0.65862453 -0.15969653 3.855 4287136373
-0.65118241 -0.15969653 3.855 4288188548
-0.64374036 -0.15969653 3.855 4288714890
-0.63629824 -0.15969653 3.855 4289043855
-0.62885618 -0.15969653 3.855 4289504406
-0.62141412 -0.15969653 3.855 4289636759
-0.61397201 -0.15969653 3.855 4289111185
-0.60652995 -0.15969653 3.855 4288848013
-0.59908783 -0.15969653 3.855 4288518794
-0.59164578 -0.15969653 3.855 4288124038
-0.58420366 -0.15969653 3.855 4287795584
-0.5767616 -0.15969653 3.855 4287400567
-0.56931949 -0.15969653 3.855 4287070578
-0.56187743 -0.15969653 3.855 4287400313
-0.55443531 -0.15969653 3.855 4288519307
-0.54699326 -0.15969653 3.855 4288978575
-0.53955114 -0.15969653 3.855 4289307027
-0.53210908 -0.15969653 3.855 4288978575
-0.52466697 -0.15969653 3.855 4288649612
-0.51722491 -0.15969653 3.855 4288123268
-0.50978285 -0.15969653 3.855 4288057475
-0.50234073 -0.15969653 3.855 4287794301
-0.49489865 -0.15969653 3.855 4287662715
-0.48745656 -0.15969653 3.855 4287466106
-0.48001447 -0.15969653 3.855 4287663485
-0.47257239 -0.15969653 3.855 4287926657
-0.4651303 -0.15969653 3.855 4288781450
-0.45768821 -0.15969653 3.855 4288913036
-0.45024616 -0.15969653 3.855 4288189313
-0.44280407 -0.15969653 3.855 4287795071
-0.43536198 -0.15969653 3.855 4287597692
-0.42791989 -0.15969653 3.855 4287334520
-0.42047781 -0.15969653 3.855 4287202934
-0.41303572 -0.15969653 3.855 4287137141
-0.40559363 -0.15969653 3.855 4286873969
-0.39815155 -0.15969653 3.855 4286873199
-0.39070946 -0.15969653 3.855 4286807406
-0.35781562 -0.14909153 3.599 4286675820
-0.35077026 -0.1490501 3.598 4286545004
-0.34382433 -0.1490501 3.598 4286545006
-0.33687839 -0.1490501 3.598 4286545519
-0.32993245 -0.1490501 3.598 4286545519
-0.29991603 -0.13840367 3.3410001 4286545519
-0.29346621 -0.13840367 3.3410001 4286677105
-0.28701642 -0.13840367 3.3410001 4286808691
-0.2805666 -0.13840367 3.3410001 4287071350
-0.27411681 -0.13840367 3.3410001 4287071350
-0.267667 -0.13840367 3.3410001 4286939764
-0.26121718 -0.13840367 3.3410001 4286742385
-0.25476739 -0.13840367 3.3410001 4286742131
-0.24831757 -0.13840367 3.3410001 4286676338
-0.24186777 -0.13840367 3.3410001 4286676338
-0.23541796 -0.13840367 3.3410001 4286675568
-0.22896816 -0.13840367 3.3410001 4286412396
-0.22251834 -0.13840367 3.3410001 4286543982
-0.21606854 -0.13840367 3.3410001 4286346603
-0.20961873 -0.13840367 3.3410001 4286149994
-0.20316893 -0.13840367 3.3410001 4286149994
-0.19671911 -0.13840367 3.3410001 4286018408
-0.19026931 -0.13840367 3.3410001 4285952615
-0.1838195 -0.13840367 3.3410001 4286018662
-0.1773697 -0.13840367 3.3410001 4285821283
-0.1709199 -0.13840367 3.3410001 4285755749
-0.16447008 -0.13840367 3.3410001 4285689956
-0.15802027 -0.13840367 3.3410001 4285755749
-0.15157047 -0.13840367 3.3410001 4285559140
-0.14512067 -0.13840367 3.3410001 4285229409
-0.13867085 -0.13840367 3.3410001 4283913549
-0.13222104 -0.13840367 3.3410001 4281547067
-0.12577124 -0.13840367 3.3410001 4281022265
-0.11932143 -0.13840367 3.3410001 4280298546
-0.11287162 -0.13840367 3.3410001 4280561718
-0.10642182 -0.13840367 3.3410001 4280232749
-0.09997201 -0.13840367 3.3410001 4280034087
-0.093522206 -0.13840367 3.3410001 4280034341
-0.087072395 -0.13840367 3.3410001 4280166697
-0.080622591 -0.13840367 3.3410001 4279903525
-0.07417278 -0.13840367 3.3410001 4279245595
-0.067722976 -0.13840367 3.3410001 4279178519
-0.061273169 -0.13840367 3.3410001 4278981140
-0.054823361 -0.13840367 3.3410001 4278915345
-0.048373554 -0.13840367 3.3410001 4278914575
-0.041923746 -0.13840367 3.3410001 4278914573
-0.035473939 -0.13840367 3.3410001 4278914573
-0.029024132 -0.13840367 3.3410001 4278586891
-0.022574324 -0.13840367 3.3410001 4278586891
-0.016124519 -0.13840367 3.3410001 4278717964
-0.0096747102 -0.13840367 3.3410001 4278586378
-0.0032249035 -0.13840367 3.3410001 4278652171
0.0032249035 -0.13840367 3.3410001 4278717194
0.0096747102 -0.13840367 3.3410001 4278520838
0.016124519 -0.13840367 3.3410001 4278651654
0.022574324 -0.13840367 3.3410001 4278586631
0.029024132 -0.13840367 3.3410001 4278586378
0.0001380309 -0.00053853565 0.013 4278520587
0.048373554 -0.13840367 3.3410001 4278586380
0.054823361 -0.13840367 3.3410001 4278520585
0.061273169 -0.13840367 3.3410001 4278455305
-2.8599844 -0.18201156 4.6079998 4282532666
-2.8622258 -0.18272254 4.6259999 4282532666
-2.8532953 -0.18272254 4.6259999 4282598459
-2.8443649 -0.18272254 4.6259999 4282466873
-2.8354344 -0.18272254 4.6259999 4282795066
-2.8265038 -0.18272254 4.6259999 4282795066
-2.8175733 -0.18272254 4.6259999 4282597687
-2.8086429 -0.18272254 4.6259999 4282400308
-2.7997124 -0.18272254 4.6259999 4282400056
-2.7907817 -0.18272254 4.6259999 4282269240
-2.7818513 -0.18272254 4.6259999 4282269240
-2.7729208 -0.18272254 4.6259999 4282401083
-2.7639904 -0.18272254 4.6259999 4282466878
-2.7550597 -0.18272254 4.6259999 4282401085
-2.7461293 -0.18272254 4.6259999 4282269499
-2.7371988 -0.18272254 4.6259999 4282269499
-2.7282684 -0.18272254 4.6259999 4282401083
-2.7193377 -0.18272254 4.6259999 4282269749
-2.7104073 -0.18272254 4.6259999 4280427036
-2.7014768 -0.18272254 4.6259999 4279835158
-2.6925464 -0.18272254 4.6259999 4279572503
-2.6836157 -0.18272254 4.6259999 4279244308
-2.6746852 -0.18272254 4.6259999 4279112722
-2.6657548 -0.18272254 4.6259999 4279046929
-0.010337837 -0.00071098265 0.017999999 4278915343
-2.6389632 -0.18272254 4.6259999 4278850067
-2.6300328 -0.18272254 4.6259999 4278850067
-2.6211023 -0.18272254 4.6259999 4278718479
-2.6121719 -0.18272254 4.6259999 4278783757
-2.6032412 -0.18272254 4.6259999 4278718217
-2.5943108 -0.18272254 4.6259999 4278718217
-2.5853803 -0.18272254 4.6259999 4278718217
-2.5764499 -0.18272254 4.6259999 4278652424
-2.5675192 -0.18272254 4.6259999 4278652424
-2.5585887 -0.18272254 4.6259999 4278718217
-2.5496583 -0.18272254 4.6259999 4278914056
-2.5407279 -0.18272254 4.6259999 4278914056
-2.5317972 -0.18272254 4.6259999 4278783240
-2.6624806 -0.1928343 4.882 4278717447
-2.6535993 -0.19287379 4.8829999 4278783240
-2.6441727 -0.19287379 4.8829999 4278717447
-2.6347461 -0.19287379 4.8829999 4278717447
-2.6253195 -0.19287379 4.8829999 4278783240
-2.6158929 -0.19287379 4.8829999 4279176453
-2.6064661 -0.19287379 4.8829999 4281209613
-2.5970395 -0.19287379 4.8829999 4281208843
-2.5876129 -0.19287379 4.8829999 4280224778
-2.5781863 -0.19287379 4.8829999 4280158985
-2.5687597 -0.19287379 4.8829999 4279504651
