# .PCD v0.7 - Point Cloud Data file format
VERSION 0.7
FIELDS x y z rgba
SIZE 4 4 4 4
TYPE F F F U
COUNT 1 1 1 1
WIDTH 1135
HEIGHT 1
VIEWPOINT 0 0 0 1 0 0 0
POINTS 1135
DATA ascii
-0.67053187 -1.3342707 4.369 4280887593
-0.66209751 -1.3342707 4.369 4281150765
-0.6536631 -1.3342707 4.369 4281218102
-0.64522874 -1.3342707 4.369 4281744446
-0.63679439 -1.3342707 4.369 4281941825
-0.62836003 -1.3342707 4.369 4281744446
-0.61992568 -1.3342707 4.369 4281678653
-0.61149132 -1.3342707 4.369 4281744192
-0.60305697 -1.3342707 4.369 4281744192
-0.59462255 -1.3342707 4.369 4282204743
-0.5861882 -1.3342707 4.369 4283060565
-0.57775384 -1.3342707 4.369 4282929749
-0.56931949 -1.3342707 4.369 4282271821
-0.56088513 -1.3342707 4.369 4281678401
-0.55245078 -1.3342707 4.369 4282007366
-0.54401642 -1.3342707 4.369 4281941573
-0.53558207 -1.3342707 4.369 4281941573
-0.52714765 -1.3342707 4.369 4282336331
-0.5187133 -1.3342707 4.369 4282139465
-0.51027894 -1.3342707 4.369 4282139465
-0.50184458 -1.3342707 4.369 4284442472
-0.49341023 -1.3342707 4.369 4285757298
-0.48497587 -1.3342707 4.369 4285955447
-0.47654149 -1.3342707 4.369 4286876549
-0.44057143 -1.2557842 4.112 4287468168
-0.43263319 -1.2557842 4.112 4287665547
-0.42469499 -1.2557842 4.112 4284638299
-0.41675675 -1.2557842 4.112 4281348918
-0.40881854 -1.2557842 4.112 4281481274
-0.40088031 -1.2557842 4.112 4281876032
-0.39294207 -1.2557842 4.112 4282862153
-0.38500386 -1.2557842 4.112 4288256914
-0.37706563 -1.2557842 4.112 4287335810
-0.36912742 -1.2557842 4.112 4287270015
-0.36118919 -1.2557842 4.112 4287203965
-0.35325095 -1.2557842 4.112 4287203965
-0.34531274 -1.2557842 4.112 4287204224
-0.33737451 -1.2557842 4.112 4287401603
-0.3294363 -1.2557842 4.112 4287072638
-0.32149807 -1.2557842 4.112 4287203969
-0.3330811 -1.3339653 4.368 4286677625
-0.32472298 -1.3342707 4.369 4285755753
-0.31628862 -1.3342707 4.369 4284769883
-0.30785424 -1.3342707 4.369 4284046930
-0.29941988 -1.3342707 4.369 4283454793
-0.29098552 -1.3342707 4.369 4283257416
-0.28255117 -1.3342707 4.369 4282599232
-0.27411678 -1.3342707 4.369 4282730567
-0.26568243 -1.3342707 4.369 4282927429
-0.25724807 -1.3342707 4.369 4282927170
-0.2488137 -1.3342707 4.369 4282927424
-0.11758494 -12.400868 40.605999 4282664004
-0.00015250966 -0.048252411 0.15800001 4282664004
0.11907335 -12.557841 41.119999 4282730820
0.19474904 -12.323299 40.352001 4282729793
0.27262837 -12.322382 40.348999 4282795586
0.35052219 -12.322382 40.348999 4282598464
0.0016669885 -0.047947016 0.15700001 4282861636
0.58792472 -12.400868 40.605999 4282795586
0.0025926642 -0.048252411 0.15800001 4282729793
-37.147675 -18.334335 60.416 4286348913
-37.175694 -18.405954 60.652 4286283120
-36.587524 -18.17198 59.881001 4286086511
-36.004154 -17.938915 59.112999 4286152304
-35.888214 -17.938005 59.110001 4286218097
-35.774101 -17.938005 59.110001 4286218097
-35.659992 -17.938005 59.110001 4286218097
-35.545879 -17.938005 59.110001 4286152304
-35.893921 -18.17198 59.881001 4286218097
-36.849022 -18.715796 61.673 4286218097
-36.734131 -18.717918 61.68 4286283890
-37.83556 -19.34185 63.736 4286218097
-38.772842 -19.885664 65.528 4286283890
-38.650471 -19.887791 65.535004 4286020718
-38.523956 -19.887791 65.535004 4285823339
-38.397438 -19.887791 65.535004 4285231204
-38.270924 -19.887791 65.535004 4284968032
-38.144409 -19.887791 65.535004 4285231974
-38.017895 -19.887791 65.535004 4285955699
-37.891376 -19.887791 65.535004 4286086515
-37.764862 -19.887791 65.535004 4286020722
-37.638348 -19.887791 65.535004 4285889136
-37.511829 -19.887791 65.535004 4286086513
-37.385315 -19.887791 65.535004 4286086513
-37.258801 -19.887791 65.535004 4286086513
-37.132286 -19.887791 65.535004 4286020720
-37.005768 -19.887791 65.535004 4285889134
-36.879253 -19.887791 65.535004 4286151536
-36.752739 -19.887791 65.535004 4285888364
-36.626225 -19.887791 65.535004 4285691755
-36.499706 -19.887791 65.535004 4285560169
-36.373192 -19.887791 65.535004 4285495146
-36.246677 -19.887791 65.535004 4285429353
-36.120163 -19.887791 65.535004 4285231974
-35.993645 -19.887791 65.535004 4284705632
-35.86713 -19.887791 65.535004 4284113503
-35.740616 -19.887791 65.535004 4282996309
-35.614098 -19.887791 65.535004 4283588192
-35.487583 -19.887791 65.535004 4284573804
-35.361069 -19.887791 65.535004 4289111718
-35.234554 -19.887791 65.535004 4289243557
-35.108036 -19.887791 65.535004 4289440936
-34.981522 -19.887791 65.535004 4289440936
-34.855007 -19.887791 65.535004 4289440936
-34.728493 -19.887791 65.535004 4289440936
-34.601974 -19.887791 65.535004 4289506729
-34.47546 -19.887791 65.535004 4289506729
-34.348946 -19.887791 65.535004 4289506729
-34.222431 -19.887791 65.535004 4289638315
-34.095913 -19.887791 65.535004 4289638062
-33.969398 -19.887791 65.535004 4289572269
-33.842884 -19.887791 65.535004 4289572522
-33.716366 -19.887791 65.535004 4289441453
-33.589851 -19.887791 65.535004 4289573039
-33.463337 -19.887791 65.535004 4289507246
-33.336823 -19.887791 65.535004 4289441453
-33.210304 -19.887791 65.535004 4289441453
-33.08379 -19.887791 65.535004 4289507246
-32.957275 -19.887791 65.535004 4289507246
-32.830761 -19.887791 65.535004 4289572269
-32.704243 -19.887791 65.535004 4289572269
-32.577728 -19.887791 65.535004 4289638062
-32.451214 -19.887791 65.535004 4289638062
-32.324699 -19.887791 65.535004 4289572269
-32.198181 -19.887791 65.535004 4289572269
-32.071667 -19.887791 65.535004 4289506478
-0.12430019 -0.07738439 0.255 4289572271
-31.69212 -19.887791 65.535004 4289572271
-31.565605 -19.887791 65.535004 4289506478
-31.439089 -19.887791 65.535004 4289506476
-31.312574 -19.887791 65.535004 4289572269
-31.186058 -19.887791 65.535004 4289572269
-31.059544 -19.887791 65.535004 4289506476
-30.933027 -19.887791 65.535004 4289375660
-30.806513 -19.887791 65.535004 4289309867
-30.679996 -19.887791 65.535004 4289375660
-30.553482 -19.887791 65.535004 4289375660
-30.426966 -19.887791 65.535004 4289375660
-30.300451 -19.887791 65.535004 4289309867
-30.173935 -19.887791 65.535004 4289309867
-30.047421 -19.887791 65.535004 4289309867
-29.920904 -19.887791 65.535004 4289375660
-29.794388 -19.887791 65.535004 4289178281
-29.667873 -19.887791 65.535004 4289178281
-29.541357 -19.887791 65.535004 4289178281
-29.414843 -19.887791 65.535004 4289178281
-29.288326 -19.887791 65.535004 4289178281
-29.161812 -19.887791 65.535004 4289178281
-29.035295 -19.887791 65.535004 4289112488
-28.908781 -19.887791 65.535004 4289112488
-28.782265 -19.887791 65.535004 4289112488
-28.65575 -19.887791 65.535004 4289046695
-28.529234 -19.887791 65.535004 4289112488
-28.402719 -19.887791 65.535004 4289112488
-28.276203 -19.887791 65.535004 4289046695
-28.149689 -19.887791 65.535004 4289046695
-28.023172 -19.887791 65.535004 4289112488
-27.896656 -19.887791 65.535004 4289046695
-27.770142 -19.887791 65.535004 4289046695
-27.643625 -19.887791 65.535004 4288980902
-27.517111 -19.887791 65.535004 4288980902
-27.390594 -19.887791 65.535004 4288980902
-27.26408 -19.887791 65.535004 4288915109
-27.137564 -19.887791 65.535004 4288915109
-27.011049 -19.887791 65.535004 4288915109
-26.884533 -19.887791 65.535004 4288980902
-26.758018 -19.887791 65.535004 4288980902
-26.631502 -19.887791 65.535004 4288915109
-26.504988 -19.887791 65.535004 4288915109
-26.378471 -19.887791 65.535004 4288849316
-26.251957 -19.887791 65.535004 4288980132
-26.125441 -19.887791 65.535004 4289045925
-25.998924 -19.887791 65.535004 4288849316
-25.87241 -19.887791 65.535004 4288849316
-25.745893 -19.887791 65.535004 4288454558
-25.619379 -19.887791 65.535004 4288191386
-25.492863 -19.887791 65.535004 4288059800
-25.366348 -19.887791 65.535004 4288125593
-25.239832 -19.887791 65.535004 4288125593
-25.113317 -19.887791 65.535004 4288059800
-24.986801 -19.887791 65.535004 4288059800
-24.860287 -19.887791 65.535004 4288191386
-24.73377 -19.887791 65.535004 4288257179
-24.607256 -19.887791 65.535004 4288585374
-24.48074 -19.887791 65.535004 4288585374
-24.354225 -19.887791 65.535004 4288716960
-24.227709 -19.887791 65.535004 4288848546
-24.101194 -19.887791 65.535004 4289045925
-23.974678 -19.887791 65.535004 4289111718
-23.848162 -19.887791 65.535004 4289177511
-23.721647 -19.887791 65.535004 4289440683
-23.595131 -19.887791 65.535004 4290493114
-23.468616 -19.887791 65.535004 4290559164
-23.3421 -19.887791 65.535004 4290559164
-23.215586 -19.887791 65.535004 4290559164
-23.089069 -19.887791 65.535004 4290493371
-22.962555 -19.887791 65.535004 4290427578
-22.836039 -19.887791 65.535004 4290361785
-22.709524 -19.887791 65.535004 4290230199
-22.583008 -19.887791 65.535004 4290230199
-22.456493 -19.887791 65.535004 4290164659
-22.329977 -19.887791 65.535004 4290033073
-22.203463 -19.887791 65.535004 4288651167
-22.076946 -19.887791 65.535004 4285163115
-21.95043 -19.887791 65.535004 4284570976
-21.823915 -19.887791 65.535004 4284570714
-21.697399 -19.887791 65.535004 4285030493
-21.570885 -19.887791 65.535004 4285752673
-21.444368 -19.887791 65.535004 4286671715
-21.317854 -19.887791 65.535004 4286869094
-21.191338 -19.887791 65.535004 4287394666
-21.064823 -19.887791 65.535004 4287592299
-20.938307 -19.887791 65.535004 4287723885
-20.811792 -19.887791 65.535004 4287591784
-20.685276 -19.887791 65.535004 4287327842
-20.558762 -19.887791 65.535004 4287262049
-20.432245 -19.887791 65.535004 4286800985
-20.305731 -19.887791 65.535004 4286472020
-0.078518339 -0.07738439 0.255 4286274641
-19.546637 -19.887791 65.535004 4284959812
-19.420122 -19.887791 65.535004 4285091911
-19.293606 -19.887791 65.535004 4285683789
-0.91181463 -1.3983815 4.6079998 4279834383
-0.90644592 -1.4038439 4.6259999 4279834383
-0.89751542 -1.4038439 4.6259999 4279834129
-0.88858491 -1.4038439 4.6259999 4279834129
-0.87965441 -1.4038439 4.6259999 4279571729
-0.8707239 -1.4038439 4.6259999 4279571727
-0.8617934 -1.4038439 4.6259999 4279703313
-0.85286289 -1.4038439 4.6259999 4279769106
-0.84393239 -1.4038439 4.6259999 4279769106
-0.83500195 -1.4038439 4.6259999 4279769106
-0.82607144 -1.4038439 4.6259999 4279703313
-0.81714094 -1.4038439 4.6259999 4279834899
-0.80821043 -1.4038439 4.6259999 4279769106
-0.79927993 -1.4038439 4.6259999 4279769106
-0.79034942 -1.4038439 4.6259999 4279769106
-0.73817563 -1.326156 4.3699999 4279769363
-0.72957242 -1.3258526 4.369 4279835158
-0.721138 -1.3258526 4.369 4279966744
-0.71270365 -1.3258526 4.369 4280098330
-0.70426929 -1.3258526 4.369 4280164123
-0.69583493 -1.3258526 4.369 4280229916
-0.68740058 -1.3258526 4.369 4280427042
-0.67896622 -1.3258526 4.369 4280624421
-0.67053187 -1.3258526 4.369 4280821800
-0.66209751 -1.3258526 4.369 4281150765
-0.6536631 -1.3258526 4.369 4281086514
-0.64522874 -1.3258526 4.369 4281744444
-0.63679439 -1.3258526 4.369 4286414205
-0.62836003 -1.3258526 4.369 4289309091
-0.61992568 -1.3258526 4.369 4289769896
-0.61149132 -1.3258526 4.369 4289901737
-0.60305697 -1.3258526 4.369 4289901737
-0.59462255 -1.3258526 4.369 4287138698
-0.5861882 -1.3258526 4.369 4282732370
-0.57775384 -1.3258526 4.369 4282864469
-0.56931949 -1.3258526 4.369 4281876291
-0.56088513 -1.3258526 4.369 4289704106
-0.55245078 -1.3258526 4.369 4288981407
-0.54401642 -1.3258526 4.369 4289047716
-0.53558207 -1.3258526 4.369 4288784544
-0.52714765 -1.3258526 4.369 4287401094
-0.5187133 -1.3258526 4.369 4285888114
-0.51027894 -1.3258526 4.369 4283783257
-0.50184458 -1.3258526 4.369 4282467399
-0.49341023 -1.3258526 4.369 4282598983
-0.48497587 -1.3258526 4.369 4281678653
-0.47654149 -1.3258526 4.369 4282730569
-0.44057143 -1.2478613 4.112 4283189321
-0.43263319 -1.2478613 4.112 4284636767
-0.42469499 -1.2478613 4.112 4283124555
-0.41675675 -1.2478613 4.112 4281875262
-0.40881854 -1.2478613 4.112 4281481274
-0.40088031 -1.2478613 4.112 4281876032
-0.39294207 -1.2478613 4.112 4283453771
-0.38500386 -1.2478613 4.112 4287401346
-0.37706563 -1.2478613 4.112 4287335553
-0.36912742 -1.2478613 4.112 4287006588
-0.36118919 -1.2478613 4.112 4286809209
-0.35325095 -1.2478613 4.112 4286809209
-0.34531274 -1.2478613 4.112 4287203967
-0.33737451 -1.2478613 4.112 4287203967
-0.3294363 -1.2478613 4.112 4287006588
-0.32149807 -1.2478613 4.112 4287005816
-0.31355983 -1.2478613 4.112 4286676851
-0.30562162 -1.2478613 4.112 4285953132
-0.31628862 -1.3258526 4.369 4284966237
-0.30785424 -1.3258526 4.369 4284177748
-0.29941988 -1.3258526 4.369 4283717197
-0.29098552 -1.3258526 4.369 4283388232
-0.28255117 -1.3258526 4.369 4282927427
-0.27411678 -1.3258526 4.369 4283059015
-0.26568243 -1.3258526 4.369 4282993222
-0.25724807 -1.3258526 4.369 4282927427
-0.2488137 -1.3258526 4.369 4282927427
-0.24037935 -1.3258526 4.369 4283059013
-0.00090250972 -0.0051589599 0.017000001 4283190342
-0.11907335 -12.478612 41.119999 4282664004
-0.039196912 -12.323237 40.608002 4282664004
0.039194979 -12.32263 40.605999 4282664257
0.11907335 -12.478612 41.119999 4282861636
0.19474904 -12.245549 40.352001 4282729793
0.27262837 -12.244638 40.348999 4282729793
0.60280889 -12.634595 41.633999 4282664000
0.71258879 -13.17841 43.425999 4282729793
0.79655111 -13.180534 43.432999 4282795586
-38.406918 -18.835484 62.464001 4286020718
-38.435886 -18.90906 62.708 4286086511
-37.686718 -18.599075 61.68 4285955697
-37.567646 -18.599075 61.68 4286021490
-37.44857 -18.599075 61.68 4286021488
-36.70734 -18.289091 60.652 4286152304
-36.590252 -18.289091 60.652 4286218097
-36.473164 -18.289091 60.652 4286152304
-36.356075 -18.289091 60.652 4286152304
-37.462646 -18.906647 62.700001 4286218351
-37.346367 -18.90906 62.708 4286218351
-37.83556 -19.219044 63.736 4286218097
-38.772842 -19.759407 65.528 4286152304
-38.650471 -19.761518 65.535004 4285889386
-38.523956 -19.761518 65.535004 4285757800
-38.397438 -19.761518 65.535004 4285231202
-38.270924 -19.761518 65.535004 4284837214
-38.144409 -19.761518 65.535004 4285166179
-38.017895 -19.761518 65.535004 4285758318
-37.891376 -19.761518 65.535004 4285889904
-37.764862 -19.761518 65.535004 4285889134
-37.638348 -19.761518 65.535004 4285823341
-37.511829 -19.761518 65.535004 4286020720
-37.385315 -19.761518 65.535004 4286086513
-37.258801 -19.761518 65.535004 4286020720
-37.132286 -19.761518 65.535004 4285889134
-37.005768 -19.761518 65.535004 4285889132
-36.879253 -19.761518 65.535004 4285954155
-36.752739 -19.761518 65.535004 4285822569
-36.626225 -19.761518 65.535004 4285691753
-36.499706 -19.761518 65.535004 4285560167
-36.373192 -19.761518 65.535004 4285429353
-36.246677 -19.761518 65.535004 4285297767
-36.120163 -19.761518 65.535004 4285231974
-35.993645 -19.761518 65.535004 4284705632
-35.86713 -19.761518 65.535004 4283982170
-35.740616 -19.761518 65.535004 4283061589
-35.614098 -19.761518 65.535004 4283587681
-35.487583 -19.761518 65.535004 4284508011
-35.361069 -19.761518 65.535004 4288652190
-35.234554 -19.761518 65.535004 4289112741
-35.108036 -19.761518 65.535004 4289440936
-34.981522 -19.761518 65.535004 4289309350
-34.855007 -19.761518 65.535004 4289440936
-34.728493 -19.761518 65.535004 4289440936
-34.601974 -19.761518 65.535004 4289506729
-34.47546 -19.761518 65.535004 4289572522
-34.348946 -19.761518 65.535004 4289572522
-34.222431 -19.761518 65.535004 4289638315
-34.095913 -19.761518 65.535004 4289638315
-33.969398 -19.761518 65.535004 4289638315
-33.842884 -19.761518 65.535004 4289638315
-33.716366 -19.761518 65.535004 4289507499
-33.589851 -19.761518 65.535004 4289638832
-33.463337 -19.761518 65.535004 4289573039
-33.336823 -19.761518 65.535004 4289638062
-33.210304 -19.761518 65.535004 4289638062
-33.08379 -19.761518 65.535004 4289769648
-32.957275 -19.761518 65.535004 4289638062
-32.830761 -19.761518 65.535004 4289573039
-32.704243 -19.761518 65.535004 4289441453
-32.577728 -19.761518 65.535004 4289703855
-32.451214 -19.761518 65.535004 4289638062
-32.324699 -19.761518 65.535004 4289703855
-32.198181 -19.761518 65.535004 4289638062
-32.071667 -19.761518 65.535004 4289638062
-31.945152 -19.761518 65.535004 4289638062
-31.818636 -19.761518 65.535004 4289572269
-31.69212 -19.761518 65.535004 4289703855
-31.565605 -19.761518 65.535004 4289572269
-31.439089 -19.761518 65.535004 4289572269
-31.312574 -19.761518 65.535004 4289572269
-31.186058 -19.761518 65.535004 4289572269
-31.059544 -19.761518 65.535004 4289506476
-30.933027 -19.761518 65.535004 4289572269
-30.806513 -19.761518 65.535004 4289506476
-30.679996 -19.761518 65.535004 4289506476
-30.553482 -19.761518 65.535004 4289638062
-30.426966 -19.761518 65.535004 4289572269
-30.300451 -19.761518 65.535004 4289375660
-30.173935 -19.761518 65.535004 4289375660
-30.047421 -19.761518 65.535004 4289375660
-29.920904 -19.761518 65.535004 4289441453
-29.794388 -19.761518 65.535004 4289309867
-29.667873 -19.761518 65.535004 4289375660
-29.541357 -19.761518 65.535004 4289309867
-29.414843 -19.761518 65.535004 4289178281
-29.288326 -19.761518 65.535004 4289309867
-29.161812 -19.761518 65.535004 4289178281
-29.035295 -19.761518 65.535004 4289178281
-28.908781 -19.761518 65.535004 4289178281
-28.782265 -19.761518 65.535004 4289178281
-28.65575 -19.761518 65.535004 4289112488
-28.529234 -19.761518 65.535004 4289112488
-28.402719 -19.761518 65.535004 4289178281
-28.276203 -19.761518 65.535004 4289112488
-28.149689 -19.761518 65.535004 4289112488
-28.023172 -19.761518 65.535004 4289112488
-27.896656 -19.761518 65.535004 4289112488
-27.770142 -19.761518 65.535004 4289046695
-27.643625 -19.761518 65.535004 4289112488
-27.517111 -19.761518 65.535004 4289046695
-27.390594 -19.761518 65.535004 4289046695
-27.26408 -19.761518 65.535004 4289111718
-27.137564 -19.761518 65.535004 4289177511
-27.011049 -19.761518 65.535004 4289111718
-26.884533 -19.761518 65.535004 4289111718
-26.758018 -19.761518 65.535004 4289111718
-26.631502 -19.761518 65.535004 4289111718
-26.504988 -19.761518 65.535004 4289177511
-26.378471 -19.761518 65.535004 4289045925
-26.251957 -19.761518 65.535004 4289045925
-26.125441 -19.761518 65.535004 4289045925
-25.998924 -19.761518 65.535004 4289045925
-25.87241 -19.761518 65.535004 4289045925
-25.745893 -19.761518 65.535004 4288716960
-25.619379 -19.761518 65.535004 4288387997
-25.492863 -19.761518 65.535004 4288322204
-25.366348 -19.761518 65.535004 4288322202
-25.239832 -19.761518 65.535004 4288191386
-25.113317 -19.761518 65.535004 4288125593
-24.986801 -19.761518 65.535004 4288125593
-24.860287 -19.761518 65.535004 4288257179
-24.73377 -19.761518 65.535004 4288454558
-24.607256 -19.761518 65.535004 4288520351
-24.48074 -19.761518 65.535004 4288586144
-24.354225 -19.761518 65.535004 4288782753
-24.227709 -19.761518 65.535004 4288848546
-24.101194 -19.761518 65.535004 4289111718
-23.974678 -19.761518 65.535004 4289177511
-23.848162 -19.761518 65.535004 4289309097
-23.721647 -19.761518 65.535004 4289506476
-23.595131 -19.761518 65.535004 4290493114
-23.468616 -19.761518 65.535004 4290690493
-23.3421 -19.761518 65.535004 4290690493
-23.215586 -19.761518 65.535004 4290624700
-23.089069 -19.761518 65.535004 4290624700
-22.962555 -19.761518 65.535004 4290427578
-22.836039 -19.761518 65.535004 4290493371
-22.709524 -19.761518 65.535004 4290361785
-22.583008 -19.761518 65.535004 4290230199
-22.456493 -19.761518 65.535004 4290230199
-22.329977 -19.761518 65.535004 4290164659
-22.203463 -19.761518 65.535004 4289638058
-22.076946 -19.761518 65.535004 4287005055
-21.95043 -19.761518 65.535004 4286477426
-21.823915 -19.761518 65.535004 4286279015
-21.697399 -19.761518 65.535004 4285950050
-21.570885 -19.761518 65.535004 4285883742
-21.444368 -19.761518 65.535004 4286540643
-21.317854 -19.761518 65.535004 4286672229
-21.191338 -19.761518 65.535004 4287132264
-21.064823 -19.761518 65.535004 4287526506
-20.938307 -19.761518 65.535004 4287723885
-20.811792 -19.761518 65.535004 4287591786
-20.685276 -19.761518 65.535004 4287262821
-0.07999517 -0.076893061 0.255 4286999649
-20.305731 -19.761518 65.535004 4286274643
-0.078518339 -0.076893061 0.255 4286011471
-19.722626 -19.684624 65.279999 4285156675
-19.673153 -19.761518 65.535004 4284894273
-19.546637 -19.761518 65.535004 4285223238
-19.420122 -19.761518 65.535004 4285617996
-19.293606 -19.761518 65.535004 4285946961
-19.167091 -19.761518 65.535004 4285815373
-0.074087836 -0.076893061 0.255 4285683787
-0.91181463 -1.3895029 4.6079998 4279834383
-0.90644592 -1.3949306 4.6259999 4279834383
-0.89751542 -1.3949306 4.6259999 4279834129
-0.88858491 -1.3949306 4.6259999 4279834129
-0.87965441 -1.3949306 4.6259999 4279834129
-0.91909748 -1.4724268 4.8829999 4279834129
-0.90967083 -1.4724268 4.8829999 4279834129
-0.90024418 -1.4724268 4.8829999 4279899922
-0.84393239 -1.3949306 4.6259999 4279899922
-0.83500195 -1.3949306 4.6259999 4279899922
-0.82607144 -1.3949306 4.6259999 4279899922
-0.81714094 -1.3949306 4.6259999 4280031249
-0.80821043 -1.3949306 4.6259999 4280031249
-0.79927993 -1.3949306 4.6259999 4279900176
-0.74644113 -1.3174344 4.369 4279834899
-0.73800677 -1.3174344 4.369 4279703570
-0.72957242 -1.3174344 4.369 4279835158
-0.721138 -1.3174344 4.369 4279900951
-0.71270365 -1.3174344 4.369 4280098330
-0.70426929 -1.3174344 4.369 4280098330
-0.69583493 -1.3174344 4.369 4280229916
-0.68740058 -1.3174344 4.369 4280361249
-0.67896622 -1.3174344 4.369 4280624421
-0.67053187 -1.3174344 4.369 4280756007
-0.66209751 -1.3174344 4.369 4281084972
-0.6536631 -1.3174344 4.369 4281086514
-0.64522874 -1.3174344 4.369 4281481274
-0.63679439 -1.3174344 4.369 4288387989
-0.62836003 -1.3174344 4.369 4288979608
-0.61992568 -1.3174344 4.369 4289242778
-0.61149132 -1.3174344 4.369 4289374364
-0.60305697 -1.3174344 4.369 4289176985
-0.59462255 -1.3174344 4.369 4287335303
-0.5861882 -1.3174344 4.369 4282666579
-0.57775384 -1.3174344 4.369 4282667090
-0.56931949 -1.3174344 4.369 4282271303
-0.56088513 -1.3174344 4.369 4289112223
-0.55245078 -1.3174344 4.369 4288848792
-0.54401642 -1.3174344 4.369 4288717206
-0.53558207 -1.3174344 4.369 4288651413
-0.52714765 -1.3174344 4.369 4288585618
-0.5187133 -1.3174344 4.369 4288388239
-0.51027894 -1.3174344 4.369 4288190860
-0.50184458 -1.3174344 4.369 4288059274
-0.49341023 -1.3174344 4.369 4287796102
-0.48497587 -1.3174344 4.369 4288256912
-0.47654149 -1.3174344 4.369 4287665545
-0.44057143 -1.2399384 4.112 4287137922
-0.43263319 -1.2399384 4.112 4285361770
-0.42469499 -1.2399384 4.112 4282335033
-0.41675675 -1.2399384 4.112 4281612086
-0.40881854 -1.2399384 4.112 4281612090
-0.40088031 -1.2399384 4.112 4282006848
-0.39294207 -1.2399384 4.112 4283388748
-0.38500386 -1.2399384 4.112 4286612085
-0.37706563 -1.2399384 4.112 4286743671
-0.36912742 -1.2399384 4.112 4286282865
-0.36118919 -1.2399384 4.112 4286085488
-0.35325095 -1.2399384 4.112 4286217074
-0.34531274 -1.2399384 4.112 4286282867
-0.33737451 -1.2399384 4.112 4286282867
-0.3294363 -1.2399384 4.112 4286217072
-0.32149807 -1.2399384 4.112 4286282865
-0.31355983 -1.2399384 4.112 4286150507
-0.30562162 -1.2399384 4.112 4285624933
-0.31628862 -1.3174344 4.369 4284901214
-0.30785424 -1.3174344 4.369 4284243284
-0.29941988 -1.3174344 4.369 4283782733
-0.29098552 -1.3174344 4.369 4283453514
-0.28255117 -1.3174344 4.369 4282993220
-0.27411678 -1.3174344 4.369 4283059013
-0.26568243 -1.3174344 4.369 4282993222
-0.25724807 -1.3174344 4.369 4283059015
-0.2488137 -1.3174344 4.369 4282796613
-0.24037935 -1.3174344 4.369 4282993990
-0.23194498 -1.3174344 4.369 4283059783
-0.22351062 -1.3174344 4.369 4283519818
-0.039042473 -12.196748 40.448002 4282729793
0.039194979 -12.24439 40.605999 4282664257
0.11758494 -12.24439 40.605999 4282664257
0.0007625483 -0.047643546 0.15800001 4282664257
0.64746135 -13.484329 44.717999 4282729793
0.0028552122 -0.052468207 0.17399999 4282729793
-38.942944 -19.096239 63.736 4286020720
-38.196209 -18.789434 62.712002 4286086513
-38.072716 -18.788235 62.708 4286218099
-37.329498 -18.480232 61.68 4286086513
-37.210426 -18.480232 61.68 4286218099
-37.091351 -18.480232 61.68 4286152306
-37.588482 -18.788235 62.708 4286020720
-37.467426 -18.788235 62.708 4286152306
-37.346367 -18.788235 62.708 4286152306
-38.293251 -19.327244 64.507004 4286283890
-38.774616 -19.634047 65.530998 4286217327
-38.650471 -19.635246 65.535004 4286019948
-38.523956 -19.635246 65.535004 4285692007
-38.397438 -19.635246 65.535004 4285297249
-38.270924 -19.635246 65.535004 4284836444
-38.144409 -19.635246 65.535004 4285166181
-38.017895 -19.635246 65.535004 4285758318
-37.891376 -19.635246 65.535004 4285692525
-37.764862 -19.635246 65.535004 4285823339
-37.638348 -19.635246 65.535004 4285823339
-37.511829 -19.635246 65.535004 4286019948
-37.385315 -19.635246 65.535004 4285889132
-37.258801 -19.635246 65.535004 4285757546
-37.132286 -19.635246 65.535004 4285823339
-37.005768 -19.635246 65.535004 4285691753
-36.879253 -19.635246 65.535004 4285757546
-36.752739 -19.635246 65.535004 4285691753
-36.626225 -19.635246 65.535004 4285625960
-36.499706 -19.635246 65.535004 4285560167
-36.373192 -19.635246 65.535004 4285429353
-36.246677 -19.635246 65.535004 4285231974
-36.120163 -19.635246 65.535004 4285231974
-35.993645 -19.635246 65.535004 4284639837
-35.86713 -19.635246 65.535004 4283850584
-35.740616 -19.635246 65.535004 4283258198
-35.614098 -19.635246 65.535004 4283587681
-35.487583 -19.635246 65.535004 4284704879
-35.361069 -19.635246 65.535004 4288848799
-35.234554 -19.635246 65.535004 4289440936
-35.108036 -19.635246 65.535004 4289309350
-34.981522 -19.635246 65.535004 4289506729
-34.855007 -19.635246 65.535004 4289506729
-34.728493 -19.635246 65.535004 4289572522
-34.601974 -19.635246 65.535004 4289572522
-34.47546 -19.635246 65.535004 4289572522
-34.348946 -19.635246 65.535004 4289572522
-34.222431 -19.635246 65.535004 4289638315
-34.095913 -19.635246 65.535004 4289704108
-33.969398 -19.635246 65.535004 4289638315
-33.842884 -19.635246 65.535004 4289704108
-33.716366 -19.635246 65.535004 4289638315
-33.589851 -19.635246 65.535004 4289703855
-33.463337 -19.635246 65.535004 4289703855
-33.336823 -19.635246 65.535004 4289769648
-33.210304 -19.635246 65.535004 4289703855
-33.08379 -19.635246 65.535004 4289703855
-32.957275 -19.635246 65.535004 4289703855
-32.830761 -19.635246 65.535004 4289769648
-32.704243 -19.635246 65.535004 4289703855
-32.577728 -19.635246 65.535004 4289703855
-32.451214 -19.635246 65.535004 4289703855
-32.324699 -19.635246 65.535004 4289703855
-32.198181 -19.635246 65.535004 4289769391
-32.071667 -19.635246 65.535004 4289835184
-31.945152 -19.635246 65.535004 4289769391
-31.818636 -19.635246 65.535004 4289703598
-31.69212 -19.635246 65.535004 4289835184
-31.565605 -19.635246 65.535004 4289703855
-31.439089 -19.635246 65.535004 4289638062
-31.312574 -19.635246 65.535004 4289638062
-31.186058 -19.635246 65.535004 4289638062
-31.059544 -19.635246 65.535004 4289441453
-30.933027 -19.635246 65.535004 4289441453
-30.806513 -19.635246 65.535004 4289441453
-30.679996 -19.635246 65.535004 4289441453
-30.553482 -19.635246 65.535004 4289507246
-30.426966 -19.635246 65.535004 4289572269
-30.300451 -19.635246 65.535004 4289572269
-30.173935 -19.635246 65.535004 4289572269
-30.047421 -19.635246 65.535004 4289572269
-29.920904 -19.635246 65.535004 4289375660
-29.794388 -19.635246 65.535004 4289375660
-29.667873 -19.635246 65.535004 4289375660
-29.541357 -19.635246 65.535004 4289441453
-29.414843 -19.635246 65.535004 4289375660
-29.288326 -19.635246 65.535004 4289441453
-29.161812 -19.635246 65.535004 4289375660
-29.035295 -19.635246 65.535004 4289178281
-28.908781 -19.635246 65.535004 4289178281
-28.782265 -19.635246 65.535004 4289309867
-28.65575 -19.635246 65.535004 4289178281
-28.529234 -19.635246 65.535004 4289178281
-28.402719 -19.635246 65.535004 4289178281
-28.276203 -19.635246 65.535004 4289112488
-28.149689 -19.635246 65.535004 4289178281
-28.023172 -19.635246 65.535004 4289112488
-27.896656 -19.635246 65.535004 4289112488
-27.770142 -19.635246 65.535004 4289112488
-27.643625 -19.635246 65.535004 4289112488
-27.517111 -19.635246 65.535004 4289112488
-27.390594 -19.635246 65.535004 4289046695
-27.26408 -19.635246 65.535004 4289177511
-27.137564 -19.635246 65.535004 4289177511
-27.011049 -19.635246 65.535004 4289177511
-26.884533 -19.635246 65.535004 4289177511
-26.758018 -19.635246 65.535004 4289177511
-26.631502 -19.635246 65.535004 4289111718
-26.504988 -19.635246 65.535004 4289111718
-26.378471 -19.635246 65.535004 4289111718
-26.251957 -19.635246 65.535004 4289045925
-26.125441 -19.635246 65.535004 4289045925
-25.998924 -19.635246 65.535004 4289177511
-25.87241 -19.635246 65.535004 4289177511
-25.745893 -19.635246 65.535004 4288716960
-25.619379 -19.635246 65.535004 4288191390
-25.492863 -19.635246 65.535004 4288257181
-25.366348 -19.635246 65.535004 4288257181
-25.239832 -19.635246 65.535004 4288257181
-25.113317 -19.635246 65.535004 4288060572
-24.986801 -19.635246 65.535004 4288191386
-24.860287 -19.635246 65.535004 4288191386
-24.73377 -19.635246 65.535004 4288454558
-24.607256 -19.635246 65.535004 4288520351
-24.48074 -19.635246 65.535004 4288586144
-24.354225 -19.635246 65.535004 4288849316
-24.227709 -19.635246 65.535004 4288849316
-24.101194 -19.635246 65.535004 4288980902
-23.974678 -19.635246 65.535004 4289046695
-23.848162 -19.635246 65.535004 4289112488
-23.721647 -19.635246 65.535004 4289441453
-23.595131 -19.635246 65.535004 4290755769
-23.468616 -19.635246 65.535004 4290690746
-23.3421 -19.635246 65.535004 4290690746
-23.215586 -19.635246 65.535004 4290624953
-23.089069 -19.635246 65.535004 4290624953
-22.962555 -19.635246 65.535004 4290559160
-22.836039 -19.635246 65.535004 4290493624
-22.709524 -19.635246 65.535004 4290362038
-22.583008 -19.635246 65.535004 4290362038
-22.456493 -19.635246 65.535004 4290230452
-22.329977 -19.635246 65.535004 4290230452
-22.203463 -19.635246 65.535004 4289967280
-22.076946 -19.635246 65.535004 4288715155
-21.95043 -19.635246 65.535004 4287725946
-21.823915 -19.635246 65.535004 4287264625
-21.697399 -19.635246 65.535004 4286606949
-21.570885 -19.635246 65.535004 4286343264
-21.444368 -19.635246 65.535004 4286474850
-21.317854 -19.635246 65.535004 4286474850
-21.191338 -19.635246 65.535004 4286671715
-21.064823 -19.635246 65.535004 4286869092
-20.938307 -19.635246 65.535004 4287197287
-20.811792 -19.635246 65.535004 4287262567
-20.478764 -19.558844 65.279999 4286736477
-20.432245 -19.635246 65.535004 4286340949
-20.305731 -19.635246 65.535004 4285946191
-0.078518339 -0.076401733 0.255 4285748812
-19.926184 -19.635246 65.535004 4285419847
-0.077041507 -0.076401733 0.255 4285025089
-19.546637 -19.635246 65.535004 4285486410
-19.420122 -19.635246 65.535004 4285946961
-19.293606 -19.635246 65.535004 4286144340
-19.167091 -19.635246 65.535004 4285946961
-0.074087836 -0.076401733 0.255 4285881166
-0.91181463 -1.3806242 4.6079998 4279965456
-0.90644592 -1.3860173 4.6259999 4279965456
-0.93430114 -1.4573256 4.8639998 4279834129
-0.92852414 -1.4630183 4.8829999 4279899922
-0.91909748 -1.4630183 4.8829999 4279899922
-0.90967083 -1.4630183 4.8829999 4279834129
-0.90024418 -1.4630183 4.8829999 4280097555
-0.84393239 -1.3860173 4.6259999 4280491028
-0.83500195 -1.3860173 4.6259999 4281278999
-0.82607144 -1.3860173 4.6259999 4281804312
-0.81714094 -1.3860173 4.6259999 4282264350
-0.80821043 -1.3860173 4.6259999 4282132764
-0.79927993 -1.3860173 4.6259999 4281803545
-0.74644113 -1.3090163 4.369 4280489999
-0.73800677 -1.3090163 4.369 4279965456
-0.72957242 -1.3090163 4.369 4279900694
-0.721138 -1.3090163 4.369 4279900951
-0.71270365 -1.3090163 4.369 4279966744
-0.70426929 -1.3090163 4.369 4280098330
-0.69583493 -1.3090163 4.369 4280229916
-0.68740058 -1.3090163 4.369 4280295709
-0.67896622 -1.3090163 4.369 4280558628
-0.67053187 -1.3090163 4.369 4280690214
-0.66209751 -1.3090163 4.369 4281019949
-0.6536631 -1.3090163 4.369 4281218100
-0.64522874 -1.3090163 4.369 4282401606
-0.63679439 -1.3090163 4.369 4287992461
-0.62836003 -1.3090163 4.369 4288583567
-0.61992568 -1.3090163 4.369 4288518544
-0.61149132 -1.3090163 4.369 4288584337
-0.60305697 -1.3090163 4.369 4288190092
-0.59462255 -1.3090163 4.369 4285756271
-0.5861882 -1.3090163 4.369 4282731600
-0.57775384 -1.3090163 4.369 4282863186
-0.56931949 -1.3090163 4.369 4282205510
-0.56088513 -1.3090163 4.369 4287730316
-0.55245078 -1.3090163 4.369 4288255887
-0.54401642 -1.3090163 4.369 4288058508
-0.53558207 -1.3090163 4.369 4287992715
-0.52714765 -1.3090163 4.369 4287861899
-0.5187133 -1.3090163 4.369 4287730313
-0.51027894 -1.3090163 4.369 4287729543
-0.50184458 -1.3090163 4.369 4287861129
-0.49341023 -1.3090163 4.369 4287729543
-0.48497587 -1.3090163 4.369 4287400578
-0.47654149 -1.3090163 4.369 4287137406
-0.44057143 -1.2320154 4.112 4286940027
-0.43263319 -1.2320154 4.112 4286808441
-0.42469499 -1.2320154 4.112 4286611062
-0.41675675 -1.2320154 4.112 4281348148
-0.40881854 -1.2320154 4.112 4282007364
-0.40088031 -1.2320154 4.112 4281941825
-0.39294207 -1.2320154 4.112 4285625710
-0.38500386 -1.2320154 4.112 4285888364
-0.37706563 -1.2320154 4.112 4285953902
-0.36912742 -1.2320154 4.112 4285952878
-0.36118919 -1.2320154 4.112 4285952365
-0.35325095 -1.2320154 4.112 4286018671
-0.34531274 -1.2320154 4.112 4285493097
-0.33737451 -1.2320154 4.112 4285558890
-0.3294363 -1.2320154 4.112 4285493351
-0.32149807 -1.2320154 4.112 4285427558
-0.31355983 -1.2320154 4.112 4285427558
-0.30562162 -1.2320154 4.112 4285230436
-0.29768339 -1.2320154 4.112 4284769885
-0.30778378 -1.3087168 4.368 4284177748
-0.29941988 -1.3090163 4.369 4283716940
-0.29098552 -1.3090163 4.369 4283256392
-0.28255117 -1.3090163 4.369 4282993222
-0.27411678 -1.3090163 4.369 4283059015
-0.26568243 -1.3090163 4.369 4282993222
-0.25724807 -1.3090163 4.369 4282993222
-0.2488137 -1.3090163 4.369 4282927429
-0.24037935 -1.3090163 4.369 4283124808
-0.23194498 -1.3090163 4.369 4283256392
-0.22351062 -1.3090163 4.369 4283387978
-0.11535231 -11.935149 39.834999 4282664000
-0.0001496139 -0.04644027 0.155 4282729793
0.11535231 -11.935149 39.834999 4282729793
0.00074806949 -0.04644027 0.155 4282664257
0.65490347 -13.552169 45.231998 4282729793
0.0028880308 -0.052732177 0.176 4282795586
-39.414028 -19.202951 64.507004 4286086513
-39.289497 -19.202951 64.507004 4286086513
-39.164967 -19.202951 64.507004 4286152306
-38.573814 -18.973434 63.736 4286086513
-38.914093 -19.202057 64.503998 4286218099
-38.791374 -19.202951 64.507004 4286152306
-39.283047 -19.508976 65.535004 4286020720
-39.156532 -19.508976 65.535004 4286086513
-39.030018 -19.508976 65.535004 4286020720
-38.9035 -19.508976 65.535004 4286152306
-38.776985 -19.508976 65.535004 4286086511
-38.650471 -19.508976 65.535004 4285823339
-38.523956 -19.508976 65.535004 4285691753
-38.397438 -19.508976 65.535004 4285296995
-38.270924 -19.508976 65.535004 4284770651
-38.144409 -19.508976 65.535004 4285362020
-38.017895 -19.508976 65.535004 4286151536
-37.891376 -19.508976 65.535004 4285757548
-37.764862 -19.508976 65.535004 4285757546
-37.638348 -19.508976 65.535004 4285691753
-37.511829 -19.508976 65.535004 4285823339
-37.385315 -19.508976 65.535004 4285823339
-37.258801 -19.508976 65.535004 4285757546
-37.132286 -19.508976 65.535004 4285757546
-37.005768 -19.508976 65.535004 4285691753
-36.879253 -19.508976 65.535004 4285691753
-36.752739 -19.508976 65.535004 4285691753
-36.626225 -19.508976 65.535004 4285625960
-36.499706 -19.508976 65.535004 4285560167
-36.373192 -19.508976 65.535004 4285428583
-36.246677 -19.508976 65.535004 4285362790
-36.120163 -19.508976 65.535004 4285100388
-35.993645 -19.508976 65.535004 4284508764
-35.86713 -19.508976 65.535004 4283784791
-35.740616 -19.508976 65.535004 4283127382
-35.614098 -19.508976 65.535004 4283521888
-35.487583 -19.508976 65.535004 4285098865
-35.361069 -19.508976 65.535004 4288848799
-35.234554 -19.508976 65.535004 4289309093
-35.108036 -19.508976 65.535004 4289506472
-34.981522 -19.508976 65.535004 4289506729
-34.855007 -19.508976 65.535004 4289572522
-34.728493 -19.508976 65.535004 4289572522
-34.601974 -19.508976 65.535004 4289572522
-34.47546 -19.508976 65.535004 4289638315
-34.348946 -19.508976 65.535004 4289769901
-34.222431 -19.508976 65.535004 4289638315
-34.095913 -19.508976 65.535004 4289638315
-33.969398 -19.508976 65.535004 4289638315
-33.842884 -19.508976 65.535004 4289704108
-33.716366 -19.508976 65.535004 4289704108
-33.589851 -19.508976 65.535004 4289769901
-33.463337 -19.508976 65.535004 4289703855
-33.336823 -19.508976 65.535004 4289703855
-33.210304 -19.508976 65.535004 4289703855
-33.08379 -19.508976 65.535004 4289769648
-32.957275 -19.508976 65.535004 4289703855
-32.830761 -19.508976 65.535004 4289769648
-32.704243 -19.508976 65.535004 4289703855
-32.577728 -19.508976 65.535004 4289769648
-32.451214 -19.508976 65.535004 4289703855
-32.324699 -19.508976 65.535004 4289703855
-32.198181 -19.508976 65.535004 4289703855
-32.071667 -19.508976 65.535004 4289901234
-31.945152 -19.508976 65.535004 4289703855
-31.818636 -19.508976 65.535004 4289703855
-31.69212 -19.508976 65.535004 4289703598
-31.565605 -19.508976 65.535004 4289769648
-31.439089 -19.508976 65.535004 4289703857
-31.312574 -19.508976 65.535004 4289638064
-31.186058 -19.508976 65.535004 4289703855
-31.059544 -19.508976 65.535004 4289441453
-30.933027 -19.508976 65.535004 4289507246
-30.806513 -19.508976 65.535004 4289507246
-30.679996 -19.508976 65.535004 4289507246
-30.553482 -19.508976 65.535004 4289638062
-30.426966 -19.508976 65.535004 4289572269
-30.300451 -19.508976 65.535004 4289638062
-30.173935 -19.508976 65.535004 4289572269
-30.047421 -19.508976 65.535004 4289572269
-29.920904 -19.508976 65.535004 4289572269
-29.794388 -19.508976 65.535004 4289441453
-29.667873 -19.508976 65.535004 4289507246
-29.541357 -19.508976 65.535004 4289441453
-29.414843 -19.508976 65.535004 4289441453
-29.288326 -19.508976 65.535004 4289441453
-29.161812 -19.508976 65.535004 4289441453
-29.035295 -19.508976 65.535004 4289310120
-28.908781 -19.508976 65.535004 4289178534
-28.782265 -19.508976 65.535004 4289375660
-28.65575 -19.508976 65.535004 4289178281
-28.529234 -19.508976 65.535004 4289375660
-28.402719 -19.508976 65.535004 4289178281
-28.276203 -19.508976 65.535004 4289178281
-28.149689 -19.508976 65.535004 4289310120
-28.023172 -19.508976 65.535004 4289112741
-27.896656 -19.508976 65.535004 4289112741
-27.770142 -19.508976 65.535004 4289178534
-27.643625 -19.508976 65.535004 4289112741
-27.517111 -19.508976 65.535004 4289178534
-27.390594 -19.508976 65.535004 4289178534
-27.26408 -19.508976 65.535004 4289112488
-27.137564 -19.508976 65.535004 4289178281
-27.011049 -19.508976 65.535004 4289112488
-26.884533 -19.508976 65.535004 4289112488
-26.758018 -19.508976 65.535004 4289112488
-26.631502 -19.508976 65.535004 4289112488
-26.504988 -19.508976 65.535004 4289112488
-26.378471 -19.508976 65.535004 4289046695
-26.251957 -19.508976 65.535004 4289046695
-26.125441 -19.508976 65.535004 4288980902
-25.998924 -19.508976 65.535004 4289046695
-25.87241 -19.508976 65.535004 4289046695
-25.745893 -19.508976 65.535004 4288651937
-25.619379 -19.508976 65.535004 4288388767
-25.492863 -19.508976 65.535004 4288454560
-25.366348 -19.508976 65.535004 4288388767
-25.239832 -19.508976 65.535004 4288257181
-25.113317 -19.508976 65.535004 4288257181
-24.986801 -19.508976 65.535004 4288388765
-24.860287 -19.508976 65.535004 4288388765
-24.73377 -19.508976 65.535004 4288454558
-24.607256 -19.508976 65.535004 4288520351
-24.48074 -19.508976 65.535004 4288651937
-24.354225 -19.508976 65.535004 4288717730
-24.227709 -19.508976 65.535004 4288849316
-24.101194 -19.508976 65.535004 4288980902
-23.974678 -19.508976 65.535004 4289046695
-23.848162 -19.508976 65.535004 4289112488
-23.721647 -19.508976 65.535004 4289441453
-23.595131 -19.508976 65.535004 4290624953
-23.468616 -19.508976 65.535004 4290690746
-23.3421 -19.508976 65.535004 4290624953
-23.215586 -19.508976 65.535004 4290690746
-23.089069 -19.508976 65.535004 4290559417
-22.962555 -19.508976 65.535004 4290559417
-22.836039 -19.508976 65.535004 4290493624
-22.709524 -19.508976 65.535004 4290427831
-22.583008 -19.508976 65.535004 4290362038
-22.456493 -19.508976 65.535004 4290362038
-22.329977 -19.508976 65.535004 4290230452
-22.203463 -19.508976 65.535004 4290098866
-22.076946 -19.508976 65.535004 4289175191
-21.95043 -19.508976 65.535004 4288120704
-21.823915 -19.508976 65.535004 4287725430
-21.697399 -19.508976 65.535004 4287066473
-21.570885 -19.508976 65.535004 4286670945
-21.444368 -19.508976 65.535004 4286474336
-21.317854 -19.508976 65.535004 4286408543
-21.191338 -19.508976 65.535004 4286408543
-21.064823 -19.508976 65.535004 4286605150
-20.938307 -19.508976 65.535004 4286736736
-20.811792 -19.508976 65.535004 4286867809
-20.478764 -19.433064 65.279999 4286538844
-20.432245 -19.508976 65.535004 4286209363
-20.305731 -19.508976 65.535004 4285617996
-20.179214 -19.508976 65.535004 4285354570
-20.052698 -19.508976 65.535004 4285157191
-19.926184 -19.508976 65.535004 4285025605
-0.077041507 -0.075910404 0.255 4284828226
-19.546637 -19.508976 65.535004 4285683789
-19.420122 -19.508976 65.535004 4286078545
-19.293606 -19.508976 65.535004 4286275924
-19.167091 -19.508976 65.535004 4286144338
-0.074087836 -0.075910404 0.255 4285881166
-18.210346 -19.433064 65.279999 4283973169
-18.154966 -19.508976 65.535004 4283907376
-18.028452 -19.508976 65.535004 4283973167
-17.901936 -19.508976 65.535004 4283841581
-17.775421 -19.508976 65.535004 4283841581
-17.648905 -19.508976 65.535004 4283907374
-17.52239 -19.508976 65.535004 4283841581
-17.395874 -19.508976 65.535004 4283841581
-17.26936 -19.508976 65.535004 4283907374
-0.06670367 -0.075910404 0.255 4283841581
-0.91181463 -1.3717456 4.6079998 4283518010
-0.90644592 -1.377104 4.6259999 4282794033
-0.93430114 -1.4479537 4.8639998 4280097038
-0.92852414 -1.4536098 4.8829999 4279965454
-0.91909748 -1.4536098 4.8829999 4279965454
-0.90967083 -1.4536098 4.8829999 4280162063
-0.90024418 -1.4536098 4.8829999 4281016345
-0.84393239 -1.377104 4.6259999 4281935898
-0.83500195 -1.377104 4.6259999 4282395418
-0.82607144 -1.377104 4.6259999 4282658590
-0.81714094 -1.377104 4.6259999 4282986785
-0.80821043 -1.377104 4.6259999 4282920992
-0.79927993 -1.377104 4.6259999 4283249698
-0.74644113 -1.3005983 4.369 4282920733
-0.73800677 -1.3005983 4.369 4280883987
-0.72957242 -1.3005983 4.369 4280031508
-0.721138 -1.3005983 4.369 4279900694
-0.71270365 -1.3005983 4.369 4279966487
-0.70426929 -1.3005983 4.369 4279966744
-0.69583493 -1.3005983 4.369 4280164123
-0.68740058 -1.3005983 4.369 4280229663
-0.67896622 -1.3005983 4.369 4280427042
-0.67053187 -1.3005983 4.369 4280690214
-0.66209751 -1.3005983 4.369 4280888365
-0.6536631 -1.3005983 4.369 4281218102
-0.64522874 -1.3005983 4.369 4282862157
-0.63679439 -1.3005983 4.369 4285887604
-0.62836003 -1.3005983 4.369 4287334785
-0.61992568 -1.3005983 4.369 4287532164
-0.61149132 -1.3005983 4.369 4287597703
-0.60305697 -1.3005983 4.369 4287334531
-0.59462255 -1.3005983 4.369 4284571744
-0.5861882 -1.3005983 4.369 4282927696
-0.57775384 -1.3005983 4.369 4283125075
-0.56931949 -1.3005983 4.369 4282729799
-0.56088513 -1.3005983 4.369 4287269508
-0.55245078 -1.3005983 4.369 4287400578
-0.54401642 -1.3005983 4.369 4287334785
-0.53558207 -1.3005983 4.369 4287268992
-0.52714765 -1.3005983 4.369 4287137406
-0.5187133 -1.3005983 4.369 4286809211
-0.51027894 -1.3005983 4.369 4286875004
-0.50184458 -1.3005983 4.369 4286809211
-0.49341023 -1.3005983 4.369 4286809211
-0.48497587 -1.3005983 4.369 4286546039
-0.47654149 -1.3005983 4.369 4286348660
-0.44057143 -1.2240925 4.112 4286413683
-0.43263319 -1.2240925 4.112 4286150511
-0.42469499 -1.2240925 4.112 4285097569
-0.41675675 -1.2240925 4.112 4281676861
-0.40881854 -1.2240925 4.112 4281546815
-0.40088031 -1.2240925 4.112 4281809985
-0.39294207 -1.2240925 4.112 4285559917
-0.38500386 -1.2240925 4.112 4285230434
-0.37706563 -1.2240925 4.112 4285295972
-0.36912742 -1.2240925 4.112 4285164132
-0.36118919 -1.2240925 4.112 4285294948
-0.35325095 -1.2240925 4.112 4285492327
-0.34531274 -1.2240925 4.112 4285294948
-0.33737451 -1.2240925 4.112 4285163362
-0.3294363 -1.2240925 4.112 4284900960
-0.32149807 -1.2240925 4.112 4284835167
-0.31355983 -1.2240925 4.112 4284638045
-0.30562162 -1.2240925 4.112 4284638045
-0.29768339 -1.2240925 4.112 4284309850
-0.30778378 -1.3003006 4.368 4283980885
-0.29941988 -1.3005983 4.369 4283585357
-0.29098552 -1.3005983 4.369 4283387978
-0.28255117 -1.3005983 4.369 4283059015
-0.27411678 -1.3005983 4.369 4282928199
-0.26568243 -1.3005983 4.369 4282862406
-0.25724807 -1.3005983 4.369 4282862406
-0.2488137 -1.3005983 4.369 4282993220
-0.24037935 -1.3005983 4.369 4283124808
-0.23194498 -1.3005983 4.369 4283124808
-0.22351062 -1.3005983 4.369 4283190599
-0.21507625 -1.3005983 4.369 4283256392
-0.00080405409 -0.0050606937 0.017000001 4283387978
-0.11311969 -11.628879 39.063999 4282664000
-0.037706561 -11.628879 39.063999 4282729793
0.037706561 -11.628879 39.063999 4282795586
0.11311969 -11.628879 39.063999 4282729793
0.00073359068 -0.045248553 0.152 4282795586
0.46208495 -12.955376 43.52 4282729791
0.54823357 -13.005982 43.689999 4282729791
0.66234553 -13.618029 45.745998 4282795586
0.0029208495 -0.05298844 0.178 4282795586
-40.042141 -19.382704 65.535004 4286020720
-39.915627 -19.382704 65.535004 4286086513
-39.789108 -19.382704 65.535004 4286086513
-39.662594 -19.382704 65.535004 4286020720
-39.536079 -19.382704 65.535004 4286152306
-39.409561 -19.382704 65.535004 4286020720
-39.283047 -19.382704 65.535004 4285889134
-39.156532 -19.382704 65.535004 4286020720
-39.030018 -19.382704 65.535004 4286020720
-38.9035 -19.382704 65.535004 4286020720
-0.1508832 -0.075419076 0.255 4286020718
-37.869961 -19.307283 65.279999 4286217581
-37.891376 -19.382704 65.535004 4285757800
-37.764862 -19.382704 65.535004 4285626214
-37.638348 -19.382704 65.535004 4285692007
-37.511829 -19.382704 65.535004 4285757546
-37.385315 -19.382704 65.535004 4285691755
-37.258801 -19.382704 65.535004 4285625962
-37.132286 -19.382704 65.535004 4285691755
-37.005768 -19.382704 65.535004 4285625962
-36.879253 -19.382704 65.535004 4285691755
-36.752739 -19.382704 65.535004 4285560167
-36.626225 -19.382704 65.535004 4285560167
-36.499706 -19.382704 65.535004 4285428581
-36.373192 -19.382704 65.535004 4285362790
-36.246677 -19.382704 65.535004 4285362790
-36.120163 -19.382704 65.535004 4285100388
-35.993645 -19.382704 65.535004 4284639837
-35.86713 -19.382704 65.535004 4283850069
-35.740616 -19.382704 65.535004 4283061589
-35.614098 -19.382704 65.535004 4283390302
-35.487583 -19.382704 65.535004 4285427830
-35.361069 -19.382704 65.535004 4289045921
-35.234554 -19.382704 65.535004 4289506472
-35.108036 -19.382704 65.535004 4289703081
-34.981522 -19.382704 65.535004 4289834667
-34.855007 -19.382704 65.535004 4289703851
-34.728493 -19.382704 65.535004 4289638058
-34.601974 -19.382704 65.535004 4289703851
-34.47546 -19.382704 65.535004 4289769644
-34.348946 -19.382704 65.535004 4289835437
-34.222431 -19.382704 65.535004 4289703851
-34.095913 -19.382704 65.535004 4289703598
-33.969398 -19.382704 65.535004 4289769391
-33.842884 -19.382704 65.535004 4289835184
-33.716366 -19.382704 65.535004 4289966770
-33.589851 -19.382704 65.535004 4289769648
-33.463337 -19.382704 65.535004 4289769648
-33.336823 -19.382704 65.535004 4289769648
-33.210304 -19.382704 65.535004 4289769648
-33.08379 -19.382704 65.535004 4289769648
-32.957275 -19.382704 65.535004 4289901234
-32.830761 -19.382704 65.535004 4289769648
-32.704243 -19.382704 65.535004 4289769648
-32.577728 -19.382704 65.535004 4289901234
-32.451214 -19.382704 65.535004 4289769648
-32.324699 -19.382704 65.535004 4289769648
-32.198181 -19.382704 65.535004 4289901234
-32.071667 -19.382704 65.535004 4289901234
-31.945152 -19.382704 65.535004 4289901234
-31.818636 -19.382704 65.535004 4289901234
-31.69212 -19.382704 65.535004 4289703855
-31.565605 -19.382704 65.535004 4289769648
-31.439089 -19.382704 65.535004 4289703855
-31.312574 -19.382704 65.535004 4289703855
-31.186058 -19.382704 65.535004 4289703855
-31.059544 -19.382704 65.535004 4289638062
-30.933027 -19.382704 65.535004 4289703855
-30.806513 -19.382704 65.535004 4289703855
-30.679996 -19.382704 65.535004 4289769648
-30.553482 -19.382704 65.535004 4289703855
